# .PCD v.7 - Point Cloud Data file format
VERSION .7
FIELDS x y z intensity
SIZE 4 4 4 4
TYPE F F F F
COUNT 1 1 1 1
WIDTH 469
HEIGHT 1
VIEWPOINT 0 0 0 1 0 0 0
POINTS 469
DATA ascii
3.679126739501953125e+00 -1.879857540130615234e+00 -1.732317358255386353e-01 2.410000000000000000e+02
3.430605411529541016e+00 -2.027270317077636719e+00 -1.644112616777420044e-01 1.100000000000000000e+01
3.514747381210327148e+00 -2.379319906234741211e+00 -1.800121068954467773e-01 1.500000000000000000e+01
3.581184387207031250e+00 -2.488928079605102539e+00 -1.870324909687042236e-01 1.300000000000000000e+01
3.355280160903930664e+00 -2.362575531005859375e+00 -1.715516448020935059e-01 1.100000000000000000e+01
3.551996946334838867e+00 -2.533846616744995117e+00 -1.871524900197982788e-01 1.100000000000000000e+01
3.155829668045043945e+00 -2.462343454360961914e+00 -1.654913127422332764e-01 1.600000000000000000e+01
3.139095306396484375e+00 -2.480422973632812500e+00 -1.653713136911392212e-01 4.000000000000000000e+01
3.256308555603027344e+00 -2.605664968490600586e+00 -1.755718588829040527e-01 2.610000000000000000e+02
2.873165130615234375e+00 2.288424670696258545e-01 -1.071802079677581787e-01 1.980000000000000000e+02
2.852618217468261719e+00 2.095985859632492065e-01 -1.057911515235900879e-01 2.590000000000000000e+02
2.855842113494873047e+00 1.922254562377929688e-01 -1.059174239635467529e-01 5.070000000000000000e+02
2.855971574783325195e+00 1.746377497911453247e-01 -1.058542877435684204e-01 5.800000000000000000e+02
2.850013971328735352e+00 1.567265540361404419e-01 -1.054123193025588989e-01 6.570000000000000000e+02
2.852915525436401367e+00 1.393337249755859375e-01 -1.055385917425155640e-01 6.510000000000000000e+02
2.858702421188354492e+00 1.220390647649765015e-01 -1.058542877435684204e-01 6.730000000000000000e+02
2.864383935928344727e+00 1.046786308288574219e-01 -1.061699837446212769e-01 6.670000000000000000e+02
2.866967439651489258e+00 8.716189861297607422e-02 -1.062962636351585388e-01 6.540000000000000000e+02
2.864455223083496094e+00 6.949608772993087769e-02 -1.061068400740623474e-01 6.990000000000000000e+02
2.864827632904052734e+00 5.191880837082862854e-02 -1.061068400740623474e-01 7.030000000000000000e+02
2.859104633331298828e+00 3.426747024059295654e-02 -1.057280078530311584e-01 7.000000000000000000e+02
2.852275371551513672e+00 1.668242365121841431e-02 -1.052860394120216370e-01 7.100000000000000000e+02
2.844339847564697266e+00 -8.172942907549440861e-04 -1.047809273004531860e-01 7.560000000000000000e+02
2.847275257110595703e+00 -1.828887686133384705e-02 -1.049703434109687805e-01 7.180000000000000000e+02
2.853096961975097656e+00 -3.583393990993499756e-02 -1.053491756319999695e-01 7.240000000000000000e+02
2.861804008483886719e+00 -5.350692570209503174e-02 -1.059174239635467529e-01 7.270000000000000000e+02
2.861421823501586914e+00 -7.106561958789825439e-02 -1.059174239635467529e-01 7.570000000000000000e+02
2.869909524917602539e+00 -8.889921009540557861e-02 -1.064856797456741333e-01 6.870000000000000000e+02
2.867315530776977539e+00 -1.064330488443374634e-01 -1.063593998551368713e-01 7.370000000000000000e+02
2.868602514266967773e+00 -1.241107210516929626e-01 -1.064856797456741333e-01 6.810000000000000000e+02
2.878751754760742188e+00 -1.422509849071502686e-01 -1.071802079677581787e-01 7.560000000000000000e+02
2.878821134567260742e+00 -1.599673032760620117e-01 -1.072433441877365112e-01 7.150000000000000000e+02
2.897707700729370117e+00 -1.788569390773773193e-01 -1.085061207413673401e-01 7.320000000000000000e+02
2.893568515777587891e+00 -1.964309662580490112e-01 -1.083167046308517456e-01 7.150000000000000000e+02
2.884346485137939453e+00 -2.135926932096481323e-01 -1.078115925192832947e-01 7.210000000000000000e+02
2.885966062545776367e+00 -2.315259575843811035e-01 -1.080010086297988892e-01 7.140000000000000000e+02
2.890456914901733398e+00 -2.497446686029434204e-01 -1.083798408508300781e-01 6.870000000000000000e+02
2.889863967895507812e+00 -2.675674259662628174e-01 -1.084429845213890076e-01 6.960000000000000000e+02
2.886181354522705078e+00 -2.850981652736663818e-01 -1.083167046308517456e-01 7.520000000000000000e+02
2.872467041015625000e+00 -3.015523850917816162e-01 -1.075590401887893677e-01 6.720000000000000000e+02
2.871554613113403320e+00 -3.192820549011230469e-01 -1.076221764087677002e-01 6.400000000000000000e+02
2.870532751083374023e+00 -3.370119035243988037e-01 -1.076853126287460327e-01 6.530000000000000000e+02
2.870391607284545898e+00 -3.548635840415954590e-01 -1.078115925192832947e-01 6.020000000000000000e+02
2.866180896759033203e+00 -3.722123801708221436e-01 -1.076853126287460327e-01 5.280000000000000000e+02
2.896476507186889648e+00 -3.942317068576812744e-01 -1.097688972949981689e-01 3.420000000000000000e+02
2.883134603500366211e+00 -4.104500710964202881e-01 -1.090743690729141235e-01 1.620000000000000000e+02
2.899317979812622070e+00 -4.309195578098297119e-01 -1.102740094065666199e-01 8.500000000000000000e+01
3.663513898849487305e+00 -1.873564839363098145e+00 -1.851567327976226807e-01 4.810000000000000000e+02
3.470968246459960938e+00 -1.939476966857910156e+00 -1.763804256916046143e-01 1.400000000000000000e+01
3.472026109695434570e+00 -1.968119621276855469e+00 -1.773275136947631836e-01 2.200000000000000000e+01
3.487270832061767578e+00 -2.033704280853271484e+00 -1.802318990230560303e-01 1.400000000000000000e+01
3.516511440277099609e+00 -2.382372379302978516e+00 -1.935542076826095581e-01 1.400000000000000000e+01
3.551738739013671875e+00 -2.470362424850463867e+00 -1.985421776771545410e-01 9.000000000000000000e+00
3.742908239364624023e+00 -2.672058343887329102e+00 -2.157790958881378174e-01 2.400000000000000000e+01
3.258683443069458008e+00 -2.512480974197387695e+00 -1.851567327976226807e-01 5.000000000000000000e+01
3.166700839996337891e+00 -2.535857200622558594e+00 -1.814946830272674561e-01 4.880000000000000000e+02
2.868713617324829102e+00 2.278355211019515991e-01 -1.149261593818664551e-01 2.370000000000000000e+02
2.815324544906616211e+00 2.062103897333145142e-01 -1.113002449274063110e-01 3.300000000000000000e+02
2.858350992202758789e+00 1.917443424463272095e-01 -1.140691265463829041e-01 5.200000000000000000e+02
2.856485843658447266e+00 1.740196794271469116e-01 -1.138713434338569641e-01 5.300000000000000000e+02
2.852518081665039062e+00 1.562156379222869873e-01 -1.135417222976684570e-01 5.790000000000000000e+02
2.852426290512084961e+00 1.386613547801971436e-01 -1.134757921099662781e-01 5.680000000000000000e+02
2.854220390319824219e+00 1.211990937590599060e-01 -1.135417222976684570e-01 5.940000000000000000e+02
2.857901811599731445e+00 1.037928089499473572e-01 -1.137394979596138000e-01 6.040000000000000000e+02
2.863471746444702148e+00 8.640645444393157959e-02 -1.140691265463829041e-01 5.870000000000000000e+02
2.865942955017089844e+00 6.888319551944732666e-02 -1.142009720206260681e-01 5.680000000000000000e+02
2.870302438735961914e+00 5.136892199516296387e-02 -1.144646778702735901e-01 5.830000000000000000e+02
2.864577054977416992e+00 3.368466719985008240e-02 -1.140691265463829041e-01 6.120000000000000000e+02
2.855749607086181641e+00 1.605525240302085876e-02 -1.134757921099662781e-01 6.200000000000000000e+02
2.849807262420654297e+00 -1.465574372559785843e-03 -1.130802407860755920e-01 6.460000000000000000e+02
2.844755649566650391e+00 -1.891933567821979523e-02 -1.127506121993064880e-01 6.140000000000000000e+02
2.852567911148071289e+00 -3.647473081946372986e-02 -1.132780164480209351e-01 6.450000000000000000e+02
2.857278823852539062e+00 -5.407059192657470703e-02 -1.136076450347900391e-01 6.180000000000000000e+02
2.866868257522583008e+00 -7.184975594282150269e-02 -1.142669022083282471e-01 6.360000000000000000e+02
2.866373538970947266e+00 -8.943918347358703613e-02 -1.142669022083282471e-01 6.100000000000000000e+02
2.864773750305175781e+00 -1.069881692528724670e-01 -1.142009720206260681e-01 6.360000000000000000e+02
2.860075712203979492e+00 -1.243913471698760986e-01 -1.139372736215591431e-01 6.160000000000000000e+02
2.858262062072753906e+00 -1.418887972831726074e-01 -1.138713434338569641e-01 6.070000000000000000e+02
2.871285438537597656e+00 -1.601998656988143921e-01 -1.147943064570426941e-01 6.290000000000000000e+02
2.874232292175292969e+00 -1.780608296394348145e-01 -1.150580048561096191e-01 5.920000000000000000e+02
2.871094465255737305e+00 -1.955581605434417725e-01 -1.149261593818664551e-01 5.790000000000000000e+02
2.890737533569335938e+00 -2.147197425365447998e-01 -1.163105964660644531e-01 6.110000000000000000e+02
2.886381864547729492e+00 -2.322134077548980713e-01 -1.161128208041191101e-01 5.850000000000000000e+02
2.900808572769165039e+00 -2.512946724891662598e-01 -1.171676293015480042e-01 5.980000000000000000e+02
2.880334138870239258e+00 -2.673401236534118652e-01 -1.159150376915931702e-01 5.820000000000000000e+02
2.874667644500732422e+00 -2.846159338951110840e-01 -1.156513392925262451e-01 5.770000000000000000e+02
2.869889974594116211e+00 -3.019365072250366211e-01 -1.154535636305809021e-01 5.340000000000000000e+02
2.862033128738403320e+00 -3.188782334327697754e-01 -1.150580048561096191e-01 5.290000000000000000e+02
2.859031677246093750e+00 -3.363169431686401367e-01 -1.149920821189880371e-01 5.670000000000000000e+02
2.846021175384521484e+00 -3.525060117244720459e-01 -1.142669022083282471e-01 4.660000000000000000e+02
2.887342929840087891e+00 -3.756185770034790039e-01 -1.171676293015480042e-01 3.390000000000000000e+02
2.865209817886352539e+00 -3.906354606151580811e-01 -1.158491149544715881e-01 1.730000000000000000e+02
2.960556745529174805e+00 -4.221366643905639648e-01 -1.223757490515708923e-01 3.600000000000000000e+01
3.662489891052246094e+00 -1.873922824859619141e+00 -1.966079771518707275e-01 4.460000000000000000e+02
3.613619565963745117e+00 -1.905233502388000488e+00 -1.946961283683776855e-01 1.700000000000000000e+01
3.342096328735351562e+00 -1.922539353370666504e+00 -1.795332431793212891e-01 1.700000000000000000e+01
3.435391664505004883e+00 -2.004343509674072266e+00 -1.875761598348617554e-01 1.500000000000000000e+01
2.848488569259643555e+00 1.950165033340454102e-01 -1.228993088006973267e-01 2.500000000000000000e+02
2.816774129867553711e+00 1.754935234785079956e-01 -1.206145808100700378e-01 3.570000000000000000e+02
2.820785999298095703e+00 1.583740562200546265e-01 -1.208222880959510803e-01 4.130000000000000000e+02
2.821704626083374023e+00 1.410630494356155396e-01 -1.208222880959510803e-01 4.430000000000000000e+02
2.824510335922241211e+00 1.238337904214859009e-01 -1.209607571363449097e-01 3.920000000000000000e+02
2.835186004638671875e+00 1.068746224045753479e-01 -1.216530948877334595e-01 4.520000000000000000e+02
2.852739334106445312e+00 9.000810980796813965e-02 -1.228300780057907104e-01 4.460000000000000000e+02
2.861216306686401367e+00 7.270367443561553955e-02 -1.233839467167854309e-01 4.160000000000000000e+02
2.860610961914062500e+00 5.512716621160507202e-02 -1.233147159218788147e-01 4.800000000000000000e+02
2.854910373687744141e+00 3.749618306756019592e-02 -1.228993088006973267e-01 4.720000000000000000e+02
2.849101066589355469e+00 1.993723772466182709e-02 -1.224839091300964355e-01 4.240000000000000000e+02
2.843184232711791992e+00 2.450992818921804428e-03 -1.220685020089149475e-01 4.780000000000000000e+02
2.829179525375366211e+00 -1.491840556263923645e-02 -1.210992261767387390e-01 4.420000000000000000e+02
2.831029891967773438e+00 -3.230075910687446594e-02 -1.212376952171325684e-01 4.900000000000000000e+02
2.842747688293457031e+00 -4.988314583897590637e-02 -1.220685020089149475e-01 4.780000000000000000e+02
2.852361202239990234e+00 -6.756295263767242432e-02 -1.227608397603034973e-01 4.520000000000000000e+02
2.855881690979003906e+00 -8.518309891223907471e-02 -1.230377778410911560e-01 4.570000000000000000e+02
2.859292984008789062e+00 -1.028489917516708374e-01 -1.233147159218788147e-01 4.770000000000000000e+02
2.861598253250122070e+00 -1.205177977681159973e-01 -1.235224157571792603e-01 4.920000000000000000e+02
2.866783380508422852e+00 -1.383635550737380981e-01 -1.239378228783607483e-01 4.620000000000000000e+02
2.861896038055419922e+00 -1.557336896657943726e-01 -1.236608847975730896e-01 4.510000000000000000e+02
2.855907678604125977e+00 -1.729885786771774292e-01 -1.233147159218788147e-01 4.750000000000000000e+02
2.858774185180664062e+00 -1.907752305269241333e-01 -1.235916540026664734e-01 4.850000000000000000e+02
2.873468875885009766e+00 -2.094760239124298096e-01 -1.246993988752365112e-01 4.770000000000000000e+02
2.872129440307617188e+00 -2.271033525466918945e-01 -1.246993988752365112e-01 4.720000000000000000e+02
2.874657869338989258e+00 -2.450617700815200806e-01 -1.249763369560241699e-01 4.320000000000000000e+02
2.882040977478027344e+00 -2.635147869586944580e-01 -1.255994439125061035e-01 4.650000000000000000e+02
2.880369901657104492e+00 -2.811936736106872559e-01 -1.255994439125061035e-01 5.110000000000000000e+02
2.869659900665283203e+00 -2.979333102703094482e-01 -1.249763369560241699e-01 4.510000000000000000e+02
2.861828327178955078e+00 -3.148799240589141846e-01 -1.245609298348426819e-01 4.990000000000000000e+02
2.850924253463745117e+00 -3.313956260681152344e-01 -1.239378228783607483e-01 4.680000000000000000e+02
2.846856832504272461e+00 -3.486394584178924561e-01 -1.237993538379669189e-01 4.840000000000000000e+02
2.846642732620239258e+00 -3.663558959960937500e-01 -1.239378228783607483e-01 4.310000000000000000e+02
2.859170675277709961e+00 -3.858193457126617432e-01 -1.249763369560241699e-01 3.560000000000000000e+02
2.840945005416870117e+00 -4.011213481426239014e-01 -1.238685920834541321e-01 1.740000000000000000e+02
2.879880189895629883e+00 -4.246649146080017090e-01 -1.267764270305633545e-01 9.500000000000000000e+01
3.664043426513671875e+00 -1.868858098983764648e+00 -2.102035582065582275e-01 5.200000000000000000e+02
3.592271089553833008e+00 -1.860104918479919434e+00 -2.054956406354904175e-01 2.000000000000000000e+01
3.835816860198974609e+00 -2.592753171920776367e+00 -2.460668534040451050e-01 2.900000000000000000e+01
3.383646726608276367e+00 -2.317421674728393555e+00 -2.093727588653564453e-01 8.000000000000000000e+00
3.117753267288208008e+00 -2.398443222045898438e+00 -1.977414190769195557e-01 2.300000000000000000e+01
3.075437307357788086e+00 -2.396065711975097656e+00 -1.953182220458984375e-01 2.900000000000000000e+01
3.106880187988281250e+00 -2.451354980468750000e+00 -1.994030326604843140e-01 2.800000000000000000e+01
3.083208322525024414e+00 -2.463521242141723633e+00 -1.986414641141891479e-01 3.260000000000000000e+02
3.177373647689819336e+00 -2.570883989334106445e+00 -2.084034681320190430e-01 2.290000000000000000e+02
2.836441278457641602e+00 2.275556921958923340e-01 -1.311735510826110840e-01 1.530000000000000000e+02
2.829826831817626953e+00 2.095585316419601440e-01 -1.305945962667465210e-01 2.050000000000000000e+02
2.833049535751342773e+00 1.923260837793350220e-01 -1.307393312454223633e-01 4.490000000000000000e+02
2.822230577468872070e+00 1.742025464773178101e-01 -1.298709213733673096e-01 4.920000000000000000e+02
2.844159126281738281e+00 1.580432355403900146e-01 -1.313906461000442505e-01 5.940000000000000000e+02
2.842086791992187500e+00 1.404413282871246338e-01 -1.311735510826110840e-01 5.570000000000000000e+02
2.857841730117797852e+00 1.236457750201225281e-01 -1.322590559720993042e-01 5.850000000000000000e+02
2.855556488037109375e+00 1.059972420334815979e-01 -1.320419609546661377e-01 5.810000000000000000e+02
2.859143733978271484e+00 8.856634795665740967e-02 -1.322590559720993042e-01 6.320000000000000000e+02
2.861627578735351562e+00 7.107071578502655029e-02 -1.324037909507751465e-01 5.760000000000000000e+02
2.863007068634033203e+00 5.352935194969177246e-02 -1.324761658906936646e-01 6.210000000000000000e+02
2.863281488418579102e+00 3.596126288175582886e-02 -1.324761658906936646e-01 6.650000000000000000e+02
2.861453533172607422e+00 1.837912388145923615e-02 -1.323314309120178223e-01 6.360000000000000000e+02
2.866499423980712891e+00 8.223704644478857517e-04 -1.326932758092880249e-01 6.480000000000000000e+02
2.860466241836547852e+00 -1.673080585896968842e-02 -1.322590559720993042e-01 6.210000000000000000e+02
2.865296363830566406e+00 -3.434203565120697021e-02 -1.326209008693695068e-01 6.580000000000000000e+02
2.860045671463012695e+00 -5.183186754584312439e-02 -1.322590559720993042e-01 6.630000000000000000e+02
2.853691339492797852e+00 -6.923431158065795898e-02 -1.318248510360717773e-01 6.600000000000000000e+02
2.858197212219238281e+00 -8.689475804567337036e-02 -1.321866959333419800e-01 6.910000000000000000e+02
2.861597061157226562e+00 -1.045766174793243408e-01 -1.324761658906936646e-01 6.610000000000000000e+02
2.865883827209472656e+00 -1.223460659384727478e-01 -1.328380107879638672e-01 6.870000000000000000e+02
2.870060205459594727e+00 -1.401720494031906128e-01 -1.331998407840728760e-01 6.960000000000000000e+02
2.874125480651855469e+00 -1.580538898706436157e-01 -1.335616856813430786e-01 6.630000000000000000e+02
2.874097108840942383e+00 -1.757471412420272827e-01 -1.336340457201004028e-01 6.920000000000000000e+02
2.869979143142700195e+00 -1.931778490543365479e-01 -1.334169507026672363e-01 6.750000000000000000e+02
2.864761114120483398e+00 -2.104914933443069458e-01 -1.331274807453155518e-01 6.470000000000000000e+02
2.860432863235473633e+00 -2.278276383876800537e-01 -1.329103708267211914e-01 6.210000000000000000e+02
2.855999946594238281e+00 -2.451186031103134155e-01 -1.326932758092880249e-01 6.510000000000000000e+02
2.857421875000000000e+00 -2.629123926162719727e-01 -1.329103708267211914e-01 6.340000000000000000e+02
2.862703084945678711e+00 -2.811229825019836426e-01 -1.334169507026672363e-01 6.250000000000000000e+02
2.876795768737792969e+00 -3.003408610820770264e-01 -1.345748305320739746e-01 6.040000000000000000e+02
2.871924877166748047e+00 -3.176577687263488770e-01 -1.343577355146408081e-01 6.180000000000000000e+02
2.868931055068969727e+00 -3.351578116416931152e-01 -1.342853605747222900e-01 6.100000000000000000e+02
2.865830659866333008e+00 -3.526330590248107910e-01 -1.342130005359649658e-01 6.150000000000000000e+02
2.832949638366699219e+00 -3.662448525428771973e-01 -1.319695860147476196e-01 4.510000000000000000e+02
2.855357408523559570e+00 -3.869706392288208008e-01 -1.337787806987762451e-01 3.540000000000000000e+02
2.820342063903808594e+00 -3.998614251613616943e-01 -1.313906461000442505e-01 1.830000000000000000e+02
2.897751331329345703e+00 -4.289948940277099609e-01 -1.372524499893188477e-01 1.150000000000000000e+02
3.610376834869384766e+00 -1.816089034080505371e+00 -2.179425954818725586e-01 8.700000000000000000e+01
3.625812292098999023e+00 -1.851818323135375977e+00 -2.201136350631713867e-01 4.180000000000000000e+02
3.458152055740356445e+00 -2.434118032455444336e+00 -2.315477430820465088e-01 1.500000000000000000e+01
3.221862554550170898e+00 -2.327431917190551758e+00 -2.130939513444900513e-01 1.000000000000000000e+01
3.093905687332153320e+00 -2.413157224655151367e+00 -2.094031870365142822e-01 2.700000000000000000e+01
3.049300193786621094e+00 -2.408602237701416016e+00 -2.066532075405120850e-01 1.600000000000000000e+01
3.095212936401367188e+00 -2.475864171981811523e+00 -2.122979015111923218e-01 2.290000000000000000e+02
3.163662433624267578e+00 -2.562613010406494141e+00 -2.201136350631713867e-01 2.330000000000000000e+02
2.831055402755737305e+00 2.254860848188400269e-01 -1.382115632295608521e-01 2.300000000000000000e+02
2.824429750442504883e+00 2.075257599353790283e-01 -1.376117318868637085e-01 2.690000000000000000e+02
2.840574026107788086e+00 1.911968737840652466e-01 -1.387364119291305542e-01 4.960000000000000000e+02
2.839702844619750977e+00 1.736420094966888428e-01 -1.385864466428756714e-01 5.510000000000000000e+02
2.858637094497680664e+00 1.572012603282928467e-01 -1.399360746145248413e-01 6.680000000000000000e+02
2.859547853469848633e+00 1.396580338478088379e-01 -1.399360746145248413e-01 6.840000000000000000e+02
2.859354734420776367e+00 1.220669597387313843e-01 -1.398610919713973999e-01 6.810000000000000000e+02
2.860049962997436523e+00 1.045199856162071228e-01 -1.398610919713973999e-01 7.040000000000000000e+02
2.864624261856079102e+00 8.709052205085754395e-02 -1.401610076427459717e-01 7.230000000000000000e+02
2.864107847213745117e+00 6.948763877153396606e-02 -1.400860249996185303e-01 6.750000000000000000e+02
2.866474390029907227e+00 5.194874852895736694e-02 -1.402359753847122192e-01 6.710000000000000000e+02
2.857765197753906250e+00 3.425133600831031799e-02 -1.395611763000488281e-01 7.500000000000000000e+02
2.868890285491943359e+00 1.678056642413139343e-02 -1.403859406709671021e-01 6.890000000000000000e+02
2.867942094802856445e+00 -8.227009093388915062e-04 -1.403109580278396606e-01 7.370000000000000000e+02
2.870874643325805664e+00 -1.843908801674842834e-02 -1.405358910560607910e-01 7.420000000000000000e+02
2.865721702575683594e+00 -3.599176928400993347e-02 -1.401610076427459717e-01 7.280000000000000000e+02
2.856473922729492188e+00 -5.340757966041564941e-02 -1.394861936569213867e-01 7.060000000000000000e+02
2.856092453002929688e+00 -7.093357294797897339e-02 -1.394861936569213867e-01 7.980000000000000000e+02
2.854606628417968750e+00 -8.842606842517852783e-02 -1.394112110137939453e-01 7.160000000000000000e+02
2.860985994338989258e+00 -1.061984673142433167e-01 -1.399360746145248413e-01 7.050000000000000000e+02
2.865261793136596680e+00 -1.239663735032081604e-01 -1.403109580278396606e-01 6.930000000000000000e+02
2.869426965713500977e+00 -1.417907476425170898e-01 -1.406858563423156738e-01 7.230000000000000000e+02
2.873481273651123047e+00 -1.596708893775939941e-01 -1.410607546567916870e-01 6.910000000000000000e+02
2.872447490692138672e+00 -1.772992312908172607e-01 -1.410607546567916870e-01 7.440000000000000000e+02
2.871305465698242188e+00 -1.949208974838256836e-01 -1.410607546567916870e-01 6.880000000000000000e+02
2.869060993194580078e+00 -2.124616503715515137e-01 -1.409857720136642456e-01 6.750000000000000000e+02
2.863727331161499023e+00 -2.297431230545043945e-01 -1.406858563423156738e-01 7.050000000000000000e+02
2.863257169723510742e+00 -2.473960965871810913e-01 -1.407608389854431152e-01 6.720000000000000000e+02
2.856720685958862305e+00 -2.645006477832794189e-01 -1.403859406709671021e-01 6.660000000000000000e+02
2.857028484344482422e+00 -2.822201251983642578e-01 -1.405358910560607910e-01 7.250000000000000000e+02
2.866152286529541016e+00 -3.008898198604583740e-01 -1.413606703281402588e-01 6.480000000000000000e+02
2.869207620620727539e+00 -3.190212249755859375e-01 -1.417355537414550781e-01 6.520000000000000000e+02
2.867196083068847656e+00 -3.366203606128692627e-01 -1.417355537414550781e-01 6.620000000000000000e+02
2.863097190856933594e+00 -3.539622128009796143e-01 -1.415856033563613892e-01 5.790000000000000000e+02
2.846038103103637695e+00 -3.695977330207824707e-01 -1.404609233140945435e-01 4.360000000000000000e+02
2.839764356613159180e+00 -3.865160346031188965e-01 -1.401610076427459717e-01 3.720000000000000000e+02
2.831415891647338867e+00 -4.030902981758117676e-01 -1.397111266851425171e-01 1.610000000000000000e+02
2.914702653884887695e+00 -4.332052171230316162e-01 -1.462342739105224609e-01 1.010000000000000000e+02
3.608699798583984375e+00 -1.817688584327697754e+00 -2.284859418869018555e-01 2.090000000000000000e+02
3.623226165771484375e+00 -1.852963089942932129e+00 -2.306603342294692993e-01 4.850000000000000000e+02
3.904470920562744141e+00 -2.150352239608764648e+00 -2.598270475864410400e-01 3.500000000000000000e+01
3.937158584594726562e+00 -2.667329072952270508e+00 -2.822456955909729004e-01 1.700000000000000000e+01
3.314801454544067383e+00 -2.275527238845825195e+00 -2.269863635301589966e-01 1.100000000000000000e+01
3.212448835372924805e+00 -2.263765573501586914e+00 -2.201633006334304810e-01 1.600000000000000000e+01
3.316946029663085938e+00 -2.398847579956054688e+00 -2.324598133563995361e-01 2.000000000000000000e+01
3.117427587509155273e+00 -2.373225212097167969e+00 -2.192635536193847656e-01 2.200000000000000000e+01
3.112283945083618164e+00 -2.399614810943603516e+00 -2.201633006334304810e-01 2.900000000000000000e+01
3.060582160949707031e+00 -2.450885772705078125e+00 -2.194885015487670898e-01 1.620000000000000000e+02
3.148502349853515625e+00 -2.553148746490478516e+00 -2.294606715440750122e-01 3.760000000000000000e+02
2.847274541854858398e+00 2.266267240047454834e-01 -1.484173387289047241e-01 2.190000000000000000e+02
2.835685968399047852e+00 2.082006037235260010e-01 -1.474018990993499756e-01 2.680000000000000000e+02
2.846857070922851562e+00 1.914680004119873047e-01 -1.481830030679702759e-01 5.000000000000000000e+02
2.849968433380126953e+00 1.741183549165725708e-01 -1.483392268419265747e-01 5.610000000000000000e+02
2.857951164245605469e+00 1.570120453834533691e-01 -1.488860100507736206e-01 5.340000000000000000e+02
2.855873584747314453e+00 1.393267661333084106e-01 -1.486516743898391724e-01 5.460000000000000000e+02
2.863646984100341797e+00 1.220993325114250183e-01 -1.491984575986862183e-01 5.710000000000000000e+02
2.854379415512084961e+00 1.041607111692428589e-01 -1.484173387289047241e-01 6.190000000000000000e+02
2.850978851318359375e+00 8.652293682098388672e-02 -1.481048911809921265e-01 5.470000000000000000e+02
2.855442762374877930e+00 6.912524253129959106e-02 -1.484173387289047241e-01 5.620000000000000000e+02
2.856809854507446289e+00 5.162146314978599548e-02 -1.484954506158828735e-01 5.840000000000000000e+02
2.858069658279418945e+00 3.410350531339645386e-02 -1.485735625028610229e-01 5.920000000000000000e+02
2.836292743682861328e+00 1.643508858978748322e-02 -1.468551158905029297e-01 5.320000000000000000e+02
2.868242502212524414e+00 -9.736057836562395096e-04 -1.493546664714813232e-01 6.000000000000000000e+02
2.850237846374511719e+00 -1.845974847674369812e-02 -1.479486674070358276e-01 5.600000000000000000e+02
2.860039710998535156e+00 -3.607210144400596619e-02 -1.487297862768173218e-01 6.040000000000000000e+02
2.849796772003173828e+00 -5.343516170978546143e-02 -1.479486674070358276e-01 5.660000000000000000e+02
2.855395078659057617e+00 -7.106795161962509155e-02 -1.484173387289047241e-01 5.660000000000000000e+02
2.863873481750488281e+00 -8.886368572711944580e-02 -1.491203457117080688e-01 6.060000000000000000e+02
2.857296705245971680e+00 -1.062132641673088074e-01 -1.486516743898391724e-01 5.920000000000000000e+02
2.860575199127197266e+00 -1.239151880145072937e-01 -1.489641219377517700e-01 5.550000000000000000e+02
2.858765363693237305e+00 -1.414159387350082397e-01 -1.488860100507736206e-01 5.790000000000000000e+02
2.854857683181762695e+00 -1.587887555360794067e-01 -1.486516743898391724e-01 5.790000000000000000e+02
2.851839303970336914e+00 -1.761802583932876587e-01 -1.484954506158828735e-01 5.630000000000000000e+02
2.862640619277954102e+00 -1.944843083620071411e-01 -1.494327783584594727e-01 5.980000000000000000e+02
2.863381862640380859e+00 -2.121924757957458496e-01 -1.495890021324157715e-01 5.520000000000000000e+02
2.870969772338867188e+00 -2.304742783308029175e-01 -1.502920091152191162e-01 5.280000000000000000e+02
2.870494842529296875e+00 -2.481715828180313110e-01 -1.503701210021972656e-01 5.500000000000000000e+02
2.866932630538940430e+00 -2.655963599681854248e-01 -1.502138972282409668e-01 5.370000000000000000e+02
2.863264799118041992e+00 -2.829867601394653320e-01 -1.500576734542846680e-01 5.350000000000000000e+02
2.860482931137084961e+00 -3.004461228847503662e-01 -1.499795615673065186e-01 4.840000000000000000e+02
2.856604099273681641e+00 -3.177719712257385254e-01 -1.498233377933502197e-01 5.340000000000000000e+02
2.854600429534912109e+00 -3.352937996387481689e-01 -1.498233377933502197e-01 5.100000000000000000e+02
2.855457544326782227e+00 -3.531695604324340820e-01 -1.500576734542846680e-01 4.800000000000000000e+02
2.773155450820922852e+00 -3.602940440177917480e-01 -1.437306702136993408e-01 2.860000000000000000e+02
2.813370227813720703e+00 -3.830792605876922607e-01 -1.470894515514373779e-01 1.780000000000000000e+02
3.607791900634765625e+00 -1.817314386367797852e+00 -2.411352097988128662e-01 2.650000000000000000e+02
3.596573114395141602e+00 -1.839417099952697754e+00 -2.411352097988128662e-01 3.510000000000000000e+02
3.625768899917602539e+00 -1.910831212997436523e+00 -2.457437664270401001e-01 1.600000000000000000e+01
3.324907302856445312e+00 -2.343094825744628906e+00 -2.433223277330398560e-01 1.600000000000000000e+01
2.845649480819702148e+00 2.287913262844085693e-01 -1.662729531526565552e-01 1.410000000000000000e+02
2.849980831146240234e+00 2.115475535392761230e-01 -1.665260642766952515e-01 1.960000000000000000e+02
2.796547651290893555e+00 1.903381645679473877e-01 -1.618855297565460205e-01 4.110000000000000000e+02
2.821531772613525391e+00 1.746513694524765015e-01 -1.639104932546615601e-01 4.620000000000000000e+02
2.834488868713378906e+00 1.580002903938293457e-01 -1.649229675531387329e-01 5.440000000000000000e+02
2.833414554595947266e+00 1.405066251754760742e-01 -1.647542268037796021e-01 6.540000000000000000e+02
2.838205337524414062e+00 1.232912316918373108e-01 -1.650917232036590576e-01 5.660000000000000000e+02
2.837912797927856445e+00 1.058369278907775879e-01 -1.650073379278182983e-01 6.080000000000000000e+02
2.829545021057128906e+00 8.814312517642974854e-02 -1.642479896545410156e-01 5.800000000000000000e+02
2.857924222946166992e+00 7.147566229104995728e-02 -1.666104346513748169e-01 6.250000000000000000e+02
2.852331399917602539e+00 5.382596701383590698e-02 -1.661041975021362305e-01 6.000000000000000000e+02
2.854600667953491211e+00 3.634863719344139099e-02 -1.662729531526565552e-01 6.400000000000000000e+02
2.854769945144653320e+00 1.883245259523391724e-02 -1.662729531526565552e-01 6.070000000000000000e+02
2.852838993072509766e+00 1.314753782935440540e-03 -1.661041975021362305e-01 6.380000000000000000e+02
2.831868410110473633e+00 -1.607001200318336487e-02 -1.643323600292205811e-01 5.770000000000000000e+02
2.851643800735473633e+00 -3.368224203586578369e-02 -1.660198271274566650e-01 6.930000000000000000e+02
2.851383447647094727e+00 -5.117896571755409241e-02 -1.660198271274566650e-01 6.350000000000000000e+02
2.855000495910644531e+00 -6.876996904611587524e-02 -1.663573235273361206e-01 6.330000000000000000e+02
2.854524612426757812e+00 -8.628662675619125366e-02 -1.663573235273361206e-01 6.430000000000000000e+02
2.855932950973510742e+00 -1.038725823163986206e-01 -1.665260642766952515e-01 6.310000000000000000e+02
2.857233047485351562e+00 -1.214790716767311096e-01 -1.666948199272155762e-01 6.720000000000000000e+02
2.862405300140380859e+00 -1.392993777990341187e-01 -1.672010570764541626e-01 6.480000000000000000e+02
2.861496686935424805e+00 -1.568601578474044800e-01 -1.672010570764541626e-01 6.470000000000000000e+02
2.861474990844726562e+00 -1.744757145643234253e-01 -1.672854274511337280e-01 6.630000000000000000e+02
2.856373786926269531e+00 -1.917628943920135498e-01 -1.669479310512542725e-01 6.180000000000000000e+02
2.848186969757080078e+00 -2.087753564119338989e-01 -1.663573235273361206e-01 6.210000000000000000e+02
2.844865798950195312e+00 -2.260895818471908569e-01 -1.661885678768157959e-01 6.250000000000000000e+02
2.850374460220336914e+00 -2.441367357969284058e-01 -1.667791903018951416e-01 5.510000000000000000e+02
2.857753276824951172e+00 -2.624423205852508545e-01 -1.675385534763336182e-01 6.300000000000000000e+02
2.864022493362426758e+00 -2.807503640651702881e-01 -1.682135313749313354e-01 6.220000000000000000e+02
2.865219116210937500e+00 -2.986284494400024414e-01 -1.684666574001312256e-01 5.930000000000000000e+02
2.870265722274780273e+00 -3.169694840908050537e-01 -1.690572798252105713e-01 5.950000000000000000e+02
2.868266820907592773e+00 -3.345751464366912842e-01 -1.690572798252105713e-01 5.910000000000000000e+02
2.863192796707153320e+00 -3.518034815788269043e-01 -1.688041538000106812e-01 5.890000000000000000e+02
2.858015537261962891e+00 -3.689821362495422363e-01 -1.685510277748107910e-01 4.340000000000000000e+02
2.858659982681274414e+00 -3.869127631187438965e-01 -1.688041538000106812e-01 3.840000000000000000e+02
2.807889699935913086e+00 -3.975977301597595215e-01 -1.646698564291000366e-01 1.530000000000000000e+02
2.818211317062377930e+00 -4.167146384716033936e-01 -1.657667011022567749e-01 9.800000000000000000e+01
3.550313711166381836e+00 -1.785099267959594727e+00 -2.610243856906890869e-01 2.300000000000000000e+02
3.562367439270019531e+00 -1.818630695343017578e+00 -2.632181048393249512e-01 3.680000000000000000e+02
3.157185316085815430e+00 -1.890421986579895020e+00 -2.361342161893844604e-01 1.200000000000000000e+01
3.974388837814331055e+00 -2.583146333694458008e+00 -3.259076178073883057e-01 1.700000000000000000e+01
3.980098962783813477e+00 -2.621736288070678711e+00 -3.281013369560241699e-01 1.000000000000000000e+02
3.283853054046630859e+00 -2.371347665786743164e+00 -2.675211429595947266e-01 5.790000000000000000e+02
3.335186004638671875e+00 -2.439695358276367188e+00 -2.744397819042205811e-01 9.340000000000000000e+02
3.363384962081909180e+00 -2.492149353027343750e+00 -2.789959609508514404e-01 6.650000000000000000e+02
3.267540454864501953e+00 -2.452326297760009766e+00 -2.704742252826690674e-01 1.530000000000000000e+02
3.125196218490600586e+00 -2.436691045761108398e+00 -2.600962817668914795e-01 8.200000000000000000e+01
3.164926767349243164e+00 -2.499048233032226562e+00 -2.660024166107177734e-01 4.400000000000000000e+01
3.071712732315063477e+00 -2.456188917160034180e+00 -2.575650811195373535e-01 2.000000000000000000e+01
3.028706789016723633e+00 -2.452415466308593750e+00 -2.545276284217834473e-01 4.550000000000000000e+02
3.200421571731567383e+00 -2.690498590469360352e+00 -2.785740792751312256e-01 5.470000000000000000e+02
3.180817604064941406e+00 -2.707501649856567383e+00 -2.782365977764129639e-01 6.970000000000000000e+02
2.851339578628540039e+00 2.264526039361953735e-01 -1.837598681449890137e-01 2.150000000000000000e+02
2.834796905517578125e+00 2.076401412487030029e-01 -1.821347326040267944e-01 2.210000000000000000e+02
2.795277118682861328e+00 1.875021159648895264e-01 -1.784330457448959351e-01 3.280000000000000000e+02
2.805321455001831055e+00 1.708936989307403564e-01 -1.792456209659576416e-01 3.360000000000000000e+02
2.818250417709350586e+00 1.543329507112503052e-01 -1.803290396928787231e-01 4.000000000000000000e+02
2.829091548919677734e+00 1.375228911638259888e-01 -1.812318861484527588e-01 3.940000000000000000e+02
2.835852146148681641e+00 1.204158887267112732e-01 -1.817735880613327026e-01 4.140000000000000000e+02
2.845494985580444336e+00 1.033400446176528931e-01 -1.825861632823944092e-01 3.730000000000000000e+02
2.846075534820556641e+00 8.587846904993057251e-02 -1.825861632823944092e-01 4.320000000000000000e+02
2.837588310241699219e+00 6.819672137498855591e-02 -1.817735880613327026e-01 3.960000000000000000e+02
2.832974433898925781e+00 5.069435015320777893e-02 -1.813221722841262817e-01 4.170000000000000000e+02
2.827257156372070312e+00 3.323928266763687134e-02 -1.807804554700851440e-01 3.940000000000000000e+02
2.816452980041503906e+00 1.582741923630237579e-02 -1.797873228788375854e-01 3.730000000000000000e+02
2.832431793212890625e+00 -1.459698658436536789e-03 -1.812318861484527588e-01 3.740000000000000000e+02
2.830377578735351562e+00 -1.882624998688697815e-02 -1.810513138771057129e-01 3.740000000000000000e+02
2.832200527191162109e+00 -3.621788322925567627e-02 -1.812318861484527588e-01 3.500000000000000000e+02
2.828937768936157227e+00 -5.353925377130508423e-02 -1.809610277414321899e-01 3.670000000000000000e+02
2.822582483291625977e+00 -7.074761390686035156e-02 -1.804193258285522461e-01 3.240000000000000000e+02
2.825081348419189453e+00 -8.815798163414001465e-02 -1.806901693344116211e-01 3.380000000000000000e+02
2.824487447738647461e+00 -1.054906994104385376e-01 -1.806901693344116211e-01 3.360000000000000000e+02
2.817816972732543945e+00 -1.225608438253402710e-01 -1.801484674215316772e-01 3.020000000000000000e+02
2.817011833190917969e+00 -1.398483365774154663e-01 -1.801484674215316772e-01 2.980000000000000000e+02
2.812123298645019531e+00 -1.569093316793441772e-01 -1.797873228788375854e-01 3.030000000000000000e+02
2.806137561798095703e+00 -1.738542169332504272e-01 -1.793358922004699707e-01 2.930000000000000000e+02
2.834826707839965820e+00 -1.930942088365554810e-01 -1.820444464683532715e-01 2.660000000000000000e+02
2.825643062591552734e+00 -2.098959535360336304e-01 -1.813221722841262817e-01 2.540000000000000000e+02
2.829265594482421875e+00 -2.276282757520675659e-01 -1.817735880613327026e-01 2.330000000000000000e+02
2.834761142730712891e+00 -2.455845177173614502e-01 -1.824055910110473633e-01 2.300000000000000000e+02
2.857000827789306641e+00 -2.651785314083099365e-01 -1.845724284648895264e-01 2.150000000000000000e+02
2.864239692687988281e+00 -2.835853099822998047e-01 -1.853849887847900391e-01 2.050000000000000000e+02
2.837684154510498047e+00 -2.985538542270660400e-01 -1.831278651952743530e-01 1.960000000000000000e+02
2.836788654327392578e+00 -3.160700201988220215e-01 -1.832181513309478760e-01 1.630000000000000000e+02
2.818969964981079102e+00 -3.316114544868469238e-01 -1.817735880613327026e-01 1.520000000000000000e+02
2.860371112823486328e+00 -3.542808592319488525e-01 -1.857461333274841309e-01 1.040000000000000000e+02
3.539727210998535156e+00 -1.783811450004577637e+00 -2.837955951690673828e-01 5.630000000000000000e+02
3.534486293792724609e+00 -1.863523960113525391e+00 -2.866846919059753418e-01 9.000000000000000000e+00
3.531381368637084961e+00 -2.208235025405883789e+00 -3.020331263542175293e-01 3.600000000000000000e+01
3.427754640579223633e+00 -2.172820091247558594e+00 -2.923726439476013184e-01 1.570000000000000000e+02
3.382516384124755859e+00 -2.173357963562011719e+00 -2.889418303966522217e-01 6.600000000000000000e+01
3.349920988082885742e+00 -2.181574106216430664e+00 -2.868652641773223877e-01 5.200000000000000000e+01
3.360578775405883789e+00 -2.217993974685668945e+00 -2.894835472106933594e-01 6.200000000000000000e+01
3.297232866287231445e+00 -2.205357551574707031e+00 -2.840664386749267578e-01 5.900000000000000000e+01
3.213558673858642578e+00 -2.178062200546264648e+00 -2.763922214508056641e-01 2.900000000000000000e+01
3.217696189880371094e+00 -2.268399477005004883e+00 -2.813578844070434570e-01 2.500000000000000000e+01
3.288872003555297852e+00 -2.379507303237915039e+00 -2.924629449844360352e-01 7.600000000000000000e+02
3.356151580810546875e+00 -2.459681749343872070e+00 -3.016720116138458252e-01 9.820000000000000000e+02
3.337797164916992188e+00 -2.477854251861572266e+00 -3.013108670711517334e-01 9.720000000000000000e+02
3.301036834716796875e+00 -2.482130289077758789e+00 -2.988731563091278076e-01 1.700000000000000000e+02
3.229485273361206055e+00 -2.459503412246704102e+00 -2.924629449844360352e-01 8.300000000000000000e+01
3.270328521728515625e+00 -2.522452116012573242e+00 -2.988731563091278076e-01 6.460000000000000000e+02
2.880090713500976562e+00 -5.119543895125389099e-02 -2.037640362977981567e-01 6.700000000000000000e+01
2.842905759811401367e+00 -6.798388063907623291e-02 -2.001920342445373535e-01 7.800000000000000000e+01
2.849399089813232422e+00 -8.563603460788726807e-02 -2.008678168058395386e-01 5.500000000000000000e+01
2.849814653396606445e+00 -1.031540706753730774e-01 -2.009643614292144775e-01 6.500000000000000000e+01
2.833217144012451172e+00 -1.199636533856391907e-01 -1.994197070598602295e-01 6.700000000000000000e+01
2.841375112533569336e+00 -1.377800703048706055e-01 -2.002885788679122925e-01 6.000000000000000000e+01
2.839482545852661133e+00 -1.551574617624282837e-01 -2.001920342445373535e-01 6.500000000000000000e+01
2.835496425628662109e+00 -1.723958998918533325e-01 -1.999024152755737305e-01 7.100000000000000000e+01
2.828426599502563477e+00 -1.893915981054306030e-01 -1.993231624364852905e-01 6.900000000000000000e+01
2.831182003021240234e+00 -2.070335298776626587e-01 -1.997093260288238525e-01 7.000000000000000000e+01
2.815536022186279297e+00 -2.406581938266754150e-01 -1.984543055295944214e-01 5.700000000000000000e+01
2.781297922134399414e+00 -2.549295425415039062e-01 -1.952684670686721802e-01 7.700000000000000000e+01
2.847041606903076172e+00 -2.785855531692504883e-01 -2.018332332372665405e-01 6.200000000000000000e+01
2.827459096908569336e+00 -2.941943109035491943e-01 -2.000954896211624146e-01 5.900000000000000000e+01
2.894817829132080078e+00 -3.371641039848327637e-01 -2.070464193820953369e-01 6.700000000000000000e+01
3.518241882324218750e+00 -1.768205404281616211e+00 -3.062902092933654785e-01 4.150000000000000000e+02
3.539242029190063477e+00 -1.806047677993774414e+00 -3.097656667232513428e-01 1.910000000000000000e+02
3.266691207885742188e+00 -1.928099393844604492e+00 -2.922918200492858887e-01 2.100000000000000000e+01
3.289813995361328125e+00 -1.969066619873046875e+00 -2.962499856948852539e-01 2.100000000000000000e+01
3.200241327285766602e+00 -1.942219614982604980e+00 -2.874647676944732666e-01 2.600000000000000000e+01
3.394250154495239258e+00 -2.088580131530761719e+00 -3.109241425991058350e-01 4.600000000000000000e+01
3.187644243240356445e+00 -2.043270587921142578e+00 -2.916160225868225098e-01 7.700000000000000000e+01
3.180054664611816406e+00 -2.066044807434082031e+00 -2.921952605247497559e-01 5.900000000000000000e+01
3.157342433929443359e+00 -2.078949689865112305e+00 -2.910367846488952637e-01 9.200000000000000000e+01
3.414396286010742188e+00 -2.308783769607543945e+00 -3.241502344608306885e-01 3.300000000000000000e+01
3.299174785614013672e+00 -2.260488986968994141e+00 -3.122757375240325928e-01 4.500000000000000000e+01
3.191405057907104492e+00 -2.244685173034667969e+00 -3.028147518634796143e-01 2.800000000000000000e+01
3.298346519470214844e+00 -2.350292205810546875e+00 -3.171992897987365723e-01 2.000000000000000000e+01
3.278214216232299805e+00 -2.366408109664916992e+00 -3.165235221385955811e-01 5.560000000000000000e+02
3.350401639938354492e+00 -2.449932098388671875e+00 -3.269498944282531738e-01 9.000000000000000000e+02
3.323309183120727539e+00 -2.461556911468505859e+00 -3.255017995834350586e-01 8.670000000000000000e+02
3.311327457427978516e+00 -2.484291553497314453e+00 -3.258879482746124268e-01 5.540000000000000000e+02
3.308987379074096680e+00 -2.546594142913818359e+00 -3.293634355068206787e-01 6.910000000000000000e+02
3.246198177337646484e+00 -2.530135631561279297e+00 -3.235709965229034424e-01 1.230000000000000000e+02
3.017331600189208984e+00 -2.381644487380981445e+00 -2.972153723239898682e-01 2.300000000000000000e+01
3.030649662017822266e+00 -2.422487497329711914e+00 -3.006908595561981201e-01 2.500000000000000000e+01
3.011086702346801758e+00 -2.437279939651489258e+00 -3.001115918159484863e-01 4.600000000000000000e+01
3.054577350616455078e+00 -2.503664731979370117e+00 -3.074486851692199707e-01 5.210000000000000000e+02
3.093724012374877930e+00 -2.599875926971435547e+00 -3.163304328918457031e-01 2.960000000000000000e+02
3.223253011703491211e+00 -2.742658615112304688e+00 -3.348662257194519043e-01 1.043000000000000000e+03
2.842637538909912109e+00 -8.870270103216171265e-02 -2.171853035688400269e-01 4.400000000000000000e+01
3.803755521774291992e+00 -1.716189146041870117e+00 -3.540522456169128418e-01 4.180000000000000000e+02
3.815759658813476562e+00 -1.749859809875488281e+00 -3.566133677959442139e-01 7.970000000000000000e+02
3.817574501037597656e+00 -1.779121160507202148e+00 -3.580476045608520508e-01 1.011000000000000000e+03
3.799393415451049805e+00 -1.799106955528259277e+00 -3.572280406951904297e-01 1.063000000000000000e+03
3.790075778961181641e+00 -1.823248028755187988e+00 -3.574329316616058350e-01 1.890000000000000000e+02
3.476916790008544922e+00 -1.725500464439392090e+00 -3.240357637405395508e-01 1.300000000000000000e+02
3.482254505157470703e+00 -1.754857778549194336e+00 -3.258797824382781982e-01 7.810000000000000000e+02
3.334085464477539062e+00 -1.757896661758422852e+00 -3.124594390392303467e-01 2.300000000000000000e+01
3.224076509475708008e+00 -1.828434228897094727e+00 -3.060053884983062744e-01 2.300000000000000000e+01
3.322580814361572266e+00 -1.965967774391174316e+00 -3.218844234943389893e-01 1.200000000000000000e+01
3.244771003723144531e+00 -1.946917772293090820e+00 -3.139961063861846924e-01 2.600000000000000000e+01
3.418889045715332031e+00 -2.079994201660156250e+00 -3.364316523075103760e-01 4.300000000000000000e+01
3.617472410202026367e+00 -2.262054681777954102e+00 -3.636820912361145020e-01 5.800000000000000000e+01
3.223741531372070312e+00 -2.043533563613891602e+00 -3.173768222332000732e-01 7.100000000000000000e+01
3.191892147064208984e+00 -2.050910472869873047e+00 -3.150205612182617188e-01 1.030000000000000000e+02
3.183416128158569336e+00 -2.073170661926269531e+00 -3.155328035354614258e-01 1.430000000000000000e+02
3.187241077423095703e+00 -2.103621482849121094e+00 -3.175817131996154785e-01 1.540000000000000000e+02
3.099851846694946289e+00 -2.073374986648559570e+00 -3.083616197109222412e-01 1.800000000000000000e+01
3.113423347473144531e+00 -2.110212087631225586e+00 -3.116398751735687256e-01 1.900000000000000000e+01
3.265943050384521484e+00 -2.302403211593627930e+00 -3.358169794082641602e-01 3.700000000000000000e+01
3.128701448440551758e+00 -2.234538316726684570e+00 -3.202452957630157471e-01 2.200000000000000000e+01
3.318042516708374023e+00 -2.400606870651245117e+00 -3.460614979267120361e-01 7.300000000000000000e+02
3.327322483062744141e+00 -2.438558340072631836e+00 -3.491348624229431152e-01 2.820000000000000000e+02
2.790290117263793945e+00 -8.385623246431350708e-02 -2.284495532512664795e-01 3.100000000000000000e+01
2.788729667663574219e+00 -1.009395346045494080e-01 -2.283412069082260132e-01 2.400000000000000000e+01
3.900918006896972656e+00 -1.726284384727478027e+00 -3.891272246837615967e-01 7.730000000000000000e+02
3.870307683944702148e+00 -1.741213560104370117e+00 -3.867436051368713379e-01 9.670000000000000000e+02
3.855030536651611328e+00 -1.762861251831054688e+00 -3.862018585205078125e-01 1.055000000000000000e+03
3.826111316680908203e+00 -1.778102278709411621e+00 -3.840349316596984863e-01 1.047000000000000000e+03
3.812432289123535156e+00 -1.800271749496459961e+00 -3.837099075317382812e-01 1.054000000000000000e+03
3.781595945358276367e+00 -1.814170002937316895e+00 -3.813262879848480225e-01 3.910000000000000000e+02
3.471324443817138672e+00 -1.744623184204101562e+00 -3.476305603981018066e-01 6.060000000000000000e+02
3.427941083908081055e+00 -2.023283004760742188e+00 -3.580318093299865723e-01 4.310000000000000000e+02
3.508436203002929688e+00 -2.099931955337524414e+00 -3.698415756225585938e-01 7.400000000000000000e+01
3.166604042053222656e+00 -1.948490262031555176e+00 -3.294283747673034668e-01 1.900000000000000000e+01
3.167660236358642578e+00 -2.003143548965454102e+00 -3.326787650585174561e-01 2.400000000000000000e+01
3.123507022857666016e+00 -2.002155065536499023e+00 -3.285616040229797363e-01 5.700000000000000000e+01
3.238704442977905273e+00 -2.104152679443359375e+00 -3.451386094093322754e-01 1.350000000000000000e+02
3.056358814239501953e+00 -2.012450933456420898e+00 -3.230359256267547607e-01 3.700000000000000000e+01
3.024107694625854492e+00 -2.017922639846801758e+00 -3.204356133937835693e-01 3.200000000000000000e+01
3.016609907150268555e+00 -2.039781570434570312e+00 -3.210856914520263672e-01 3.200000000000000000e+01
3.045860290527343750e+00 -2.086910963058471680e+00 -3.266113698482513428e-01 3.800000000000000000e+01
3.055046081542968750e+00 -2.120868444442749023e+00 -3.295367062091827393e-01 3.800000000000000000e+01
3.062302589416503906e+00 -2.153872728347778320e+00 -3.322453796863555908e-01 2.900000000000000000e+01
3.050648212432861328e+00 -2.173775911331176758e+00 -3.324620723724365234e-01 2.800000000000000000e+01
3.080716133117675781e+00 -2.252712488174438477e+00 -3.401546776294708252e-01 3.100000000000000000e+01
3.042870998382568359e+00 -2.253821134567260742e+00 -3.369042873382568359e-01 6.200000000000000000e+01
3.059201240539550781e+00 -2.295120954513549805e+00 -3.410214483737945557e-01 3.000000000000000000e+01
