# .PCD v.7 - Point Cloud Data file format
VERSION .7
FIELDS x y z intensity
SIZE 4 4 4 4
TYPE F F F F
COUNT 1 1 1 1
WIDTH 471
HEIGHT 1
VIEWPOINT 0 0 0 1 0 0 0
POINTS 471
DATA ascii
2.830518245697021484e+00 -2.243005931377410889e-01 1.609406806528568268e-02 4.900000000000000000e+01
3.987084865570068359e+00 -2.223198890686035156e+00 -1.945019140839576721e-02 9.930000000000000000e+02
3.984680414199829102e+00 -2.254021883010864258e+00 -1.971790567040443420e-02 9.630000000000000000e+02
3.977711915969848633e+00 -2.282410383224487305e+00 -1.988265290856361389e-02 1.007000000000000000e+03
3.947215557098388672e+00 -2.297217607498168945e+00 -1.949137821793556213e-02 1.018000000000000000e+03
3.942516088485717773e+00 -2.326985120773315430e+00 -1.971790567040443420e-02 7.630000000000000000e+02
3.946177959442138672e+00 -2.361916780471801758e+00 -2.015036717057228088e-02 1.940000000000000000e+02
3.923064708709716797e+00 -2.380897521972656250e+00 -1.994443312287330627e-02 1.860000000000000000e+02
3.938182353973388672e+00 -2.423265457153320312e+00 -2.066520415246486664e-02 1.460000000000000000e+02
3.933418035507202148e+00 -2.453735351562500000e+00 -2.091232500970363617e-02 1.450000000000000000e+02
3.925892591476440430e+00 -2.482634067535400391e+00 -2.109766565263271332e-02 1.410000000000000000e+02
3.862611293792724609e+00 -2.475917577743530273e+00 -1.992383971810340881e-02 1.270000000000000000e+02
2.844952583312988281e+00 4.228424727916717529e-01 6.838785950094461441e-03 1.350000000000000000e+02
2.817800998687744141e+00 4.011528193950653076e-01 7.545579224824905396e-03 2.380000000000000000e+02
2.827143669128417969e+00 3.847989737987518311e-01 7.380660623311996460e-03 4.030000000000000000e+02
2.840356826782226562e+00 3.688602745532989502e-01 7.121503353118896484e-03 4.810000000000000000e+02
2.842566728591918945e+00 3.514252305030822754e-01 7.121503353118896484e-03 5.250000000000000000e+02
2.842683553695678711e+00 3.337439298629760742e-01 7.168622687458992004e-03 5.400000000000000000e+02
2.846665143966674805e+00 3.165161013603210449e-01 7.121503353118896484e-03 5.020000000000000000e+02
2.851536512374877930e+00 2.993563115596771240e-01 7.050823885947465897e-03 5.610000000000000000e+02
2.854314565658569336e+00 2.819521725177764893e-01 7.027264218777418137e-03 5.860000000000000000e+02
2.854995250701904297e+00 2.643410265445709229e-01 7.050823885947465897e-03 5.950000000000000000e+02
2.860547542572021484e+00 2.471621334552764893e-01 6.956584751605987549e-03 5.590000000000000000e+02
2.862010240554809570e+00 2.296054810285568237e-01 6.956584751605987549e-03 5.260000000000000000e+02
2.863365411758422852e+00 2.120402008295059204e-01 6.956584751605987549e-03 5.420000000000000000e+02
2.866607427597045898e+00 1.946022361516952515e-01 6.909465417265892029e-03 5.690000000000000000e+02
2.868745326995849609e+00 1.770709306001663208e-01 6.885905750095844269e-03 5.540000000000000000e+02
2.875766754150390625e+00 1.597977578639984131e-01 6.744546815752983093e-03 5.630000000000000000e+02
2.876693248748779297e+00 1.421493738889694214e-01 6.744546815752983093e-03 5.580000000000000000e+02
2.870519638061523438e+00 1.241935566067695618e-01 6.909465417265892029e-03 5.680000000000000000e+02
2.863235473632812500e+00 1.062818393111228943e-01 7.097943685948848724e-03 5.630000000000000000e+02
2.865832090377807617e+00 8.877314627170562744e-02 7.050823885947465897e-03 5.880000000000000000e+02
2.867322206497192383e+00 7.121182233095169067e-02 7.027264218777418137e-03 5.720000000000000000e+02
2.876701116561889648e+00 5.378459766507148743e-02 6.815226282924413681e-03 5.490000000000000000e+02
2.884974241256713867e+00 3.623245656490325928e-02 6.626748014241456985e-03 5.800000000000000000e+02
2.894139528274536133e+00 1.858717203140258789e-02 6.414710078388452530e-03 5.870000000000000000e+02
2.891200065612792969e+00 8.280287147499620914e-04 6.485389545559883118e-03 5.870000000000000000e+02
2.888151407241821289e+00 -1.689434051513671875e-02 6.556069012731313705e-03 5.810000000000000000e+02
2.880995988845825195e+00 -3.453111276030540466e-02 6.720987148582935333e-03 6.150000000000000000e+02
2.884727954864501953e+00 -5.228061228990554810e-02 6.626748014241456985e-03 5.870000000000000000e+02
2.882354021072387695e+00 -6.993137300014495850e-02 6.673867814242839813e-03 6.180000000000000000e+02
2.888865470886230469e+00 -8.782891184091567993e-02 6.508949212729930878e-03 5.550000000000000000e+02
2.898262739181518555e+00 -1.059186905622482300e-01 6.273351609706878662e-03 6.310000000000000000e+02
2.901553630828857422e+00 -1.238708868622779846e-01 6.179112475365400314e-03 5.860000000000000000e+02
2.905731439590454102e+00 -1.419162899255752563e-01 6.061313673853874207e-03 5.980000000000000000e+02
2.893825769424438477e+00 -1.591383814811706543e-01 6.320471409708261490e-03 5.140000000000000000e+02
2.894790649414062500e+00 -1.770137101411819458e-01 6.273351609706878662e-03 4.660000000000000000e+02
2.905619382858276367e+00 -1.955788433551788330e-01 5.990634672343730927e-03 2.590000000000000000e+02
2.871462583541870117e+00 -2.109842896461486816e-01 6.768106948584318161e-03 1.510000000000000000e+02
3.982810974121093750e+00 -2.096186161041259766e+00 -3.144583106040954590e-02 4.850000000000000000e+02
3.940775156021118164e+00 -2.105039834976196289e+00 -3.066835924983024597e-02 3.650000000000000000e+02
3.962060928344726562e+00 -2.147762537002563477e+00 -3.158719092607498169e-02 5.160000000000000000e+02
3.921653747558593750e+00 -2.157095432281494141e+00 -3.085683844983577728e-02 6.770000000000000000e+02
3.938898086547851562e+00 -2.198170185089111328e+00 -3.168142959475517273e-02 6.430000000000000000e+02
3.925336122512817383e+00 -2.222297430038452148e+00 -3.168142959475517273e-02 5.810000000000000000e+02
3.907291889190673828e+00 -2.243851423263549805e+00 -3.156363219022750854e-02 5.660000000000000000e+02
3.893450260162353516e+00 -2.267783880233764648e+00 -3.156363219022750854e-02 5.300000000000000000e+02
3.900120019912719727e+00 -2.303834915161132812e+00 -3.212906420230865479e-02 3.860000000000000000e+02
3.889340877532958984e+00 -2.329777240753173828e+00 -3.222330287098884583e-02 1.910000000000000000e+02
3.876681327819824219e+00 -2.354635953903198242e+00 -3.227042406797409058e-02 1.780000000000000000e+02
3.851945877075195312e+00 -2.372087478637695312e+00 -3.198770806193351746e-02 1.910000000000000000e+02
3.861062526702880859e+00 -2.410502910614013672e+00 -3.264737874269485474e-02 1.430000000000000000e+02
3.864783525466918945e+00 -2.445910930633544922e+00 -3.316569328308105469e-02 1.630000000000000000e+02
3.859800338745117188e+00 -2.476056814193725586e+00 -3.344841301441192627e-02 1.530000000000000000e+02
3.805143356323242188e+00 -2.474079370498657227e+00 -3.234110400080680847e-02 1.610000000000000000e+02
2.819260597229003906e+00 4.173702597618103027e-01 -1.459287479519844055e-03 1.950000000000000000e+02
2.823748111724853516e+00 4.003445208072662354e-01 -1.512688235379755497e-03 3.230000000000000000e+02
2.835066556930541992e+00 3.842195272445678711e-01 -1.752991462126374245e-03 4.900000000000000000e+02
2.838361978530883789e+00 3.669448792934417725e-01 -1.779691898263990879e-03 5.660000000000000000e+02
2.839568138122558594e+00 3.493999838829040527e-01 -1.752991462126374245e-03 6.570000000000000000e+02
2.841658353805541992e+00 3.319701552391052246e-01 -1.752991462126374245e-03 6.180000000000000000e+02
2.845628976821899414e+00 3.147477209568023682e-01 -1.806392217986285686e-03 6.110000000000000000e+02
2.848500967025756836e+00 2.973851859569549561e-01 -1.833092537708580494e-03 6.260000000000000000e+02
2.856241226196289062e+00 2.804880440235137939e-01 -1.993294805288314819e-03 6.510000000000000000e+02
2.850940465927124023e+00 2.623156607151031494e-01 -1.806392217986285686e-03 6.160000000000000000e+02
2.862456083297729492e+00 2.456730753183364868e-01 -2.073395764455199242e-03 6.540000000000000000e+02
2.857930660247802734e+00 2.276282012462615967e-01 -1.913193729706108570e-03 5.930000000000000000e+02
2.859273672103881836e+00 2.100879698991775513e-01 -1.913193729706108570e-03 6.280000000000000000e+02
2.871479988098144531e+00 1.932789534330368042e-01 -2.206897595897316933e-03 6.650000000000000000e+02
2.885582923889160156e+00 1.764501631259918213e-01 -2.554002450779080391e-03 6.900000000000000000e+02
2.874633789062500000e+00 1.580818742513656616e-01 -2.233598148450255394e-03 6.740000000000000000e+02
2.875549554824829102e+00 1.404404789209365845e-01 -2.233598148450255394e-03 6.520000000000000000e+02
2.874359846115112305e+00 1.227084025740623474e-01 -2.180197276175022125e-03 6.630000000000000000e+02
2.880053520202636719e+00 1.052521765232086182e-01 -2.313699107617139816e-03 6.950000000000000000e+02
2.875649213790893555e+00 8.742634207010269165e-02 -2.180197276175022125e-03 6.660000000000000000e+02
2.881128311157226562e+00 6.990156322717666626e-02 -2.313699107617139816e-03 6.850000000000000000e+02
2.887499809265136719e+00 5.233100429177284241e-02 -2.473901258781552315e-03 6.910000000000000000e+02
2.899761438369750977e+00 3.475711122155189514e-02 -2.794305793941020966e-03 7.080000000000000000e+02
2.904918193817138672e+00 1.699337922036647797e-02 -2.927807625383138657e-03 7.250000000000000000e+02
2.894971370697021484e+00 -8.288926328532397747e-04 -2.660803962498903275e-03 7.030000000000000000e+02
2.887914419174194336e+00 -1.854754798114299774e-02 -2.473901258781552315e-03 7.110000000000000000e+02
2.883748054504394531e+00 -3.621712327003479004e-02 -2.367099979892373085e-03 7.280000000000000000e+02
2.882472038269042969e+00 -5.389215797185897827e-02 -2.340399427339434624e-03 7.150000000000000000e+02
2.887083768844604492e+00 -7.170146703720092773e-02 -2.473901258781552315e-03 7.160000000000000000e+02
2.890586137771606445e+00 -8.953849971294403076e-02 -2.580702770501375198e-03 6.700000000000000000e+02
2.897974014282226562e+00 -1.075692996382713318e-01 -2.794305793941020966e-03 7.220000000000000000e+02
2.906247854232788086e+00 -1.257372796535491943e-01 -3.034608904272317886e-03 7.010000000000000000e+02
2.902426242828369141e+00 -1.434194743633270264e-01 -2.954507945105433464e-03 6.630000000000000000e+02
2.898497343063354492e+00 -1.610595136880874634e-01 -2.874406753107905388e-03 5.550000000000000000e+02
2.899450063705444336e+00 -1.789643764495849609e-01 -2.927807625383138657e-03 5.360000000000000000e+02
2.911262750625610352e+00 -1.976311355829238892e-01 -3.274912247434258461e-03 2.460000000000000000e+02
2.862143278121948242e+00 -2.119497805833816528e-01 -1.993294805288314819e-03 1.760000000000000000e+02
3.957504034042358398e+00 -2.085556507110595703e+00 -4.482067748904228210e-02 4.210000000000000000e+02
3.935817718505859375e+00 -2.105085611343383789e+00 -4.455367475748062134e-02 3.770000000000000000e+02
3.917555570602416992e+00 -2.126334905624389648e+00 -4.439347237348556519e-02 2.720000000000000000e+02
3.918445348739624023e+00 -2.158047914505004883e+00 -4.482067748904228210e-02 2.000000000000000000e+02
3.908620595932006836e+00 -2.184000730514526367e+00 -4.492748156189918518e-02 1.560000000000000000e+02
3.856011390686035156e+00 -2.185760974884033203e+00 -4.372596368193626404e-02 1.050000000000000000e+02
3.878925323486328125e+00 -2.230306148529052734e+00 -4.484738036990165710e-02 1.050000000000000000e+02
3.858258962631225586e+00 -2.250036478042602539e+00 -4.463377594947814941e-02 1.090000000000000000e+02
3.793614387512207031e+00 -2.243645906448364258e+00 -4.305845499038696289e-02 8.500000000000000000e+01
3.754914283752441406e+00 -2.251971483230590820e+00 -4.228414595127105713e-02 1.030000000000000000e+02
3.835834741592407227e+00 -2.332618713378906250e+00 -4.524788632988929749e-02 1.450000000000000000e+02
3.831660985946655273e+00 -2.362406015396118164e+00 -4.556828737258911133e-02 2.410000000000000000e+02
3.820484161376953125e+00 -2.387991428375244141e+00 -4.567509144544601440e-02 2.090000000000000000e+02
3.806032657623291016e+00 -2.444417953491210938e+00 -4.615569859743118286e-02 2.240000000000000000e+02
3.782584190368652344e+00 -2.462272167205810547e+00 -4.588869214057922363e-02 2.440000000000000000e+02
3.729855060577392578e+00 -2.460664987564086914e+00 -4.468717798590660095e-02 8.600000000000000000e+01
2.843251466751098633e+00 4.376050233840942383e-01 -1.067518349736928940e-02 1.220000000000000000e+02
2.836983680725097656e+00 4.188354909420013428e-01 -1.040818728506565094e-02 2.400000000000000000e+02
2.823665142059326172e+00 3.991787731647491455e-01 -9.933527559041976929e-03 3.820000000000000000e+02
2.830023527145385742e+00 3.823816180229187012e-01 -1.005219295620918274e-02 4.920000000000000000e+02
2.836281776428222656e+00 3.655214607715606689e-01 -1.017085742205381393e-02 4.940000000000000000e+02
2.838471174240112305e+00 3.481114804744720459e-01 -1.017085742205381393e-02 5.370000000000000000e+02
2.840553760528564453e+00 3.306883871555328369e-01 -1.017085742205381393e-02 5.570000000000000000e+02
2.837561607360839844e+00 3.127045333385467529e-01 -1.002252660691738129e-02 5.440000000000000000e+02
2.840421199798583984e+00 2.953912615776062012e-01 -1.005219295620918274e-02 5.110000000000000000e+02
2.849143743515014648e+00 2.786394655704498291e-01 -1.025985646992921829e-02 5.670000000000000000e+02
2.851795196533203125e+00 2.612435519695281982e-01 -1.028952281922101974e-02 5.050000000000000000e+02
2.841393470764160156e+00 2.427173703908920288e-01 -9.933527559041976929e-03 5.310000000000000000e+02
2.845818519592285156e+00 2.255157381296157837e-01 -1.002252660691738129e-02 5.290000000000000000e+02
2.848145484924316406e+00 2.081229090690612793e-01 -1.005219295620918274e-02 5.380000000000000000e+02
2.851363658905029297e+00 1.907768994569778442e-01 -1.011152472347021103e-02 5.620000000000000000e+02
2.858466863632202148e+00 1.736423671245574951e-01 -1.028952281922101974e-02 5.500000000000000000e+02
2.872453212738037109e+00 1.568104475736618042e-01 -1.067518349736928940e-02 6.120000000000000000e+02
2.877354860305786133e+00 1.393765807151794434e-01 -1.079384889453649521e-02 5.540000000000000000e+02
2.879154682159423828e+00 1.217612549662590027e-01 -1.082351524382829666e-02 6.020000000000000000e+02
2.882844209671020508e+00 1.042016372084617615e-01 -1.091251336038112640e-02 6.240000000000000000e+02
2.883429288864135742e+00 8.651087433099746704e-02 -1.091251336038112640e-02 6.120000000000000000e+02
2.882906675338745117e+00 6.879284232854843140e-02 -1.088284701108932495e-02 5.860000000000000000e+02
2.883274316787719727e+00 5.110236257314682007e-02 -1.088284701108932495e-02 5.950000000000000000e+02
2.891529560089111328e+00 3.350399062037467957e-02 -1.112017687410116196e-02 6.120000000000000000e+02
2.896678447723388672e+00 1.578937098383903503e-02 -1.126850862056016922e-02 5.840000000000000000e+02
2.894721746444702148e+00 -1.983586465939879417e-03 -1.120917592197656631e-02 6.190000000000000000e+02
2.899652719497680664e+00 -1.977845653891563416e-02 -1.135750766843557358e-02 5.670000000000000000e+02
2.888482570648193359e+00 -3.742945566773414612e-02 -1.103117875754833221e-02 6.400000000000000000e+02
2.884201049804687500e+00 -5.507650226354598999e-02 -1.091251336038112640e-02 6.340000000000000000e+02
2.884808063507080078e+00 -7.279763370752334595e-02 -1.094217970967292786e-02 6.290000000000000000e+02
2.889302253723144531e+00 -9.065297991037368774e-02 -1.109051145613193512e-02 6.160000000000000000e+02
2.886693954467773438e+00 -1.083050891757011414e-01 -1.103117875754833221e-02 5.850000000000000000e+02
2.893964052200317383e+00 -1.263629198074340820e-01 -1.126850862056016922e-02 6.380000000000000000e+02
2.892135858535766602e+00 -1.440680176019668579e-01 -1.123884227126836777e-02 5.730000000000000000e+02
2.877225399017333984e+00 -1.610315591096878052e-01 -1.082351524382829666e-02 4.080000000000000000e+02
2.867204189300537109e+00 -1.781266033649444580e-01 -1.055651903152465820e-02 3.360000000000000000e+02
2.904950141906738281e+00 -1.983651816844940186e-01 -1.171350199729204178e-02 7.800000000000000000e+01
3.976361274719238281e+00 -1.943824291229248047e+00 -5.665786191821098328e-02 2.760000000000000000e+02
3.980680465698242188e+00 -2.068471193313598633e+00 -5.843783542513847351e-02 4.900000000000000000e+01
3.901601076126098633e+00 -2.057890415191650391e+00 -5.621286854147911072e-02 4.500000000000000000e+01
3.896832227706909180e+00 -2.086036205291748047e+00 -5.647986382246017456e-02 8.300000000000000000e+01
3.915580987930297852e+00 -2.127080917358398438e+00 -5.754784867167472839e-02 3.800000000000000000e+01
3.912085533142089844e+00 -2.156373023986816406e+00 -5.787417665123939514e-02 3.300000000000000000e+01
3.883948802947998047e+00 -2.172044038772583008e+00 -5.736985057592391968e-02 3.800000000000000000e+01
3.827075719833374023e+00 -2.171178340911865234e+00 -5.588654056191444397e-02 5.800000000000000000e+01
3.820612907409667969e+00 -2.198607683181762695e+00 -5.612387135624885559e-02 5.300000000000000000e+01
3.816547155380249023e+00 -2.227550506591796875e+00 -5.645019933581352234e-02 5.700000000000000000e+01
3.791624307632446289e+00 -2.244308710098266602e+00 -5.606453865766525269e-02 6.500000000000000000e+01
3.758926153182983398e+00 -2.256216526031494141e+00 -5.541187897324562073e-02 6.800000000000000000e+01
3.811617136001586914e+00 -2.319764375686645508e+00 -5.772584676742553711e-02 3.000000000000000000e+01
3.730956077575683594e+00 -2.302174329757690430e+00 -5.541187897324562073e-02 3.100000000000000000e+01
3.790490150451660156e+00 -2.371134281158447266e+00 -5.799284204840660095e-02 4.300000000000000000e+01
3.801196098327636719e+00 -2.410403490066528320e+00 -5.888282880187034607e-02 3.100000000000000000e+01
3.642539262771606445e+00 -2.341279506683349609e+00 -5.380990356206893921e-02 3.300000000000000000e+01
3.721076011657714844e+00 -2.424137592315673828e+00 -5.710285529494285583e-02 1.170000000000000000e+02
3.754516124725341797e+00 -2.478861331939697266e+00 -5.882349610328674316e-02 2.620000000000000000e+02
2.751444578170776367e+00 3.938185572624206543e-01 -1.696955971419811249e-02 7.600000000000000000e+01
2.824116945266723633e+00 3.865392208099365234e-01 -1.931119151413440704e-02 2.510000000000000000e+02
2.809587478637695312e+00 3.670056760311126709e-01 -1.875052042305469513e-02 2.890000000000000000e+02
2.820713043212890625e+00 3.508682548999786377e-01 -1.904734596610069275e-02 3.550000000000000000e+02
2.831745862960815430e+00 3.346080780029296875e-01 -1.934417337179183960e-02 3.670000000000000000e+02
2.827786207199096680e+00 3.165604174137115479e-01 -1.914628781378269196e-02 3.690000000000000000e+02
2.823711633682250977e+00 2.985739409923553467e-01 -1.894840411841869354e-02 3.470000000000000000e+02
2.822506904602050781e+00 2.809458971023559570e-01 -1.884946227073669434e-02 3.590000000000000000e+02
2.822187185287475586e+00 2.634366154670715332e-01 -1.878350041806697845e-02 3.900000000000000000e+02
2.826737642288208008e+00 2.463748604059219360e-01 -1.888244226574897766e-02 3.700000000000000000e+02
2.835169553756713867e+00 2.295891642570495605e-01 -1.911330781877040863e-02 3.990000000000000000e+02
2.840511798858642578e+00 2.124861031770706177e-01 -1.924523152410984039e-02 3.760000000000000000e+02
2.847744703292846680e+00 1.954626441001892090e-01 -1.944311521947383881e-02 4.240000000000000000e+02
2.845897912979125977e+00 1.777990907430648804e-01 -1.934417337179183960e-02 4.040000000000000000e+02
2.839950084686279297e+00 1.599414646625518799e-01 -1.911330781877040863e-02 3.930000000000000000e+02
2.838881731033325195e+00 1.424130499362945557e-01 -1.904734596610069275e-02 4.080000000000000000e+02
2.841698884963989258e+00 1.250788718461990356e-01 -1.911330781877040863e-02 4.040000000000000000e+02
2.849404096603393555e+00 1.079037114977836609e-01 -1.934417337179183960e-02 4.130000000000000000e+02
2.862999200820922852e+00 9.082781523466110229e-02 -1.977292262017726898e-02 4.170000000000000000e+02
2.867499113082885742e+00 7.336062937974929810e-02 -1.990484632551670074e-02 4.010000000000000000e+02
2.864897489547729492e+00 5.570682883262634277e-02 -1.980590261518955231e-02 4.250000000000000000e+02
2.863186597824096680e+00 3.810084983706474304e-02 -1.973994262516498566e-02 4.620000000000000000e+02
2.856370449066162109e+00 2.048299275338649750e-02 -1.950907707214355469e-02 4.350000000000000000e+02
2.852444410324096680e+00 2.952802227810025215e-03 -1.937715336680412292e-02 4.320000000000000000e+02
2.858405590057373047e+00 -1.458115130662918091e-02 -1.957503892481327057e-02 4.600000000000000000e+02
2.867256879806518555e+00 -3.222235664725303650e-02 -1.987186446785926819e-02 4.410000000000000000e+02
2.863008022308349609e+00 -4.974476620554924011e-02 -1.973994262516498566e-02 4.210000000000000000e+02
2.859651327133178711e+00 -6.723991036415100098e-02 -1.964099891483783722e-02 4.290000000000000000e+02
2.859184741973876953e+00 -8.478514105081558228e-02 -1.964099891483783722e-02 4.160000000000000000e+02
2.865602493286132812e+00 -1.025786548852920532e-01 -1.987186446785926819e-02 4.100000000000000000e+02
2.879897594451904297e+00 -1.207905486226081848e-01 -2.036657556891441345e-02 4.480000000000000000e+02
2.877105712890625000e+00 -1.383626312017440796e-01 -2.030061371624469757e-02 4.160000000000000000e+02
2.878198623657226562e+00 -1.561222225427627563e-01 -2.036657556891441345e-02 4.410000000000000000e+02
2.882174491882324219e+00 -1.740817129611968994e-01 -2.053147926926612854e-02 4.500000000000000000e+02
2.870082616806030273e+00 -1.910311132669448853e-01 -2.016869187355041504e-02 2.850000000000000000e+02
2.817022085189819336e+00 -2.048593908548355103e-01 -1.845369301736354828e-02 1.620000000000000000e+02
2.917339563369750977e+00 -2.301760762929916382e-01 -2.181772887706756592e-02 4.600000000000000000e+01
3.942197799682617188e+00 -1.889478802680969238e+00 -6.950788199901580811e-02 8.100000000000000000e+01
3.967370986938476562e+00 -1.931573867797851562e+00 -7.086008787155151367e-02 2.500000000000000000e+01
3.975153446197509766e+00 -1.965629220008850098e+00 -7.158567011356353760e-02 4.100000000000000000e+01
3.987132072448730469e+00 -2.002095460891723633e+00 -7.247614860534667969e-02 5.200000000000000000e+01
3.891969203948974609e+00 -1.984293937683105469e+00 -6.940893828868865967e-02 9.600000000000000000e+01
3.845106124877929688e+00 -1.990215778350830078e+00 -6.812269240617752075e-02 1.830000000000000000e+02
3.841669082641601562e+00 -2.018421173095703125e+00 -6.845249980688095093e-02 1.670000000000000000e+02
3.838030338287353516e+00 -2.046658992767333984e+00 -6.878230720758438110e-02 1.450000000000000000e+02
3.806063413619995117e+00 -2.059702873229980469e+00 -6.805672496557235718e-02 1.180000000000000000e+02
3.801237583160400391e+00 -2.087348222732543945e+00 -6.835355609655380249e-02 1.890000000000000000e+02
3.773516654968261719e+00 -2.102361679077148438e+00 -6.779287755489349365e-02 1.410000000000000000e+02
3.737054824829101562e+00 -2.112195253372192383e+00 -6.690239906311035156e-02 1.100000000000000000e+02
3.743098258972167969e+00 -2.146024227142333984e+00 -6.762797385454177856e-02 9.700000000000000000e+01
3.836124420166015625e+00 -2.230761051177978516e+00 -7.168460637331008911e-02 4.200000000000000000e+01
3.731976509094238281e+00 -2.200936794281005859e+00 -6.822162866592407227e-02 1.040000000000000000e+02
3.765575408935546875e+00 -2.252014160156250000e+00 -7.003556936979293823e-02 6.000000000000000000e+01
3.758088350296020508e+00 -2.310619592666625977e+00 -7.082711160182952881e-02 2.600000000000000000e+01
3.786245584487915039e+00 -2.360074520111083984e+00 -7.247614860534667969e-02 1.800000000000000000e+01
3.776762485504150391e+00 -2.386466026306152344e+00 -7.267402857542037964e-02 1.500000000000000000e+01
3.801601648330688477e+00 -2.434934854507446289e+00 -7.422412931919097900e-02 2.200000000000000000e+01
3.765633583068847656e+00 -2.444607734680175781e+00 -7.339961081743240356e-02 8.000000000000000000e+00
3.802325725555419922e+00 -2.501732349395751953e+00 -7.544441521167755127e-02 2.600000000000000000e+01
3.687124252319335938e+00 -2.458469629287719727e+00 -7.148672640323638916e-02 9.300000000000000000e+01
2.843926191329956055e+00 4.226899743080139160e-01 -2.812665142118930817e-02 1.650000000000000000e+02
2.814805507659912109e+00 4.007265567779541016e-01 -2.698195911943912506e-02 2.260000000000000000e+02
2.789484739303588867e+00 3.796755075454711914e-01 -2.598035335540771484e-02 4.010000000000000000e+02
2.845278263092041016e+00 3.694991171360015869e-01 -2.791202068328857422e-02 4.800000000000000000e+02
2.847491979598999023e+00 3.520338535308837891e-01 -2.791202068328857422e-02 5.160000000000000000e+02
2.854561090469360352e+00 3.351376950740814209e-01 -2.809087932109832764e-02 5.100000000000000000e+02
2.864509820938110352e+00 3.184991776943206787e-01 -2.837705239653587341e-02 5.550000000000000000e+02
2.862434387207031250e+00 3.004997372627258301e-01 -2.823396585881710052e-02 5.610000000000000000e+02
2.855273723602294922e+00 2.820468842983245850e-01 -2.791202068328857422e-02 5.620000000000000000e+02
2.849984884262084961e+00 2.638773918151855469e-01 -2.766161970794200897e-02 5.550000000000000000e+02
2.848563432693481445e+00 2.461273372173309326e-01 -2.755430527031421661e-02 5.760000000000000000e+02
2.850019931793212891e+00 2.286442518234252930e-01 -2.755430527031421661e-02 5.720000000000000000e+02
2.852365732192993164e+00 2.112262994050979614e-01 -2.759007737040519714e-02 5.690000000000000000e+02
2.851613998413085938e+00 1.935852766036987305e-01 -2.751853317022323608e-02 5.450000000000000000e+02
2.857735633850097656e+00 1.763920038938522339e-01 -2.769739180803298950e-02 5.700000000000000000e+02
2.855770587921142578e+00 1.586877852678298950e-01 -2.759007737040519714e-02 5.410000000000000000e+02
2.859684944152832031e+00 1.413099169731140137e-01 -2.769739180803298950e-02 5.600000000000000000e+02
2.862494945526123047e+00 1.238468363881111145e-01 -2.776893414556980133e-02 5.590000000000000000e+02
2.867195844650268555e+00 1.064286157488822937e-01 -2.791202068328857422e-02 5.490000000000000000e+02
2.871790409088134766e+00 8.895736187696456909e-02 -2.805510722100734711e-02 6.040000000000000000e+02
2.877277374267578125e+00 7.145848870277404785e-02 -2.823396585881710052e-02 5.820000000000000000e+02
2.885655164718627930e+00 5.395149067044258118e-02 -2.852013893425464630e-02 6.230000000000000000e+02
2.867944717407226562e+00 3.601955994963645935e-02 -2.787625044584274292e-02 5.340000000000000000e+02
2.866113185882568359e+00 1.840878091752529144e-02 -2.780470624566078186e-02 5.820000000000000000e+02
2.868170976638793945e+00 8.227533544413745403e-04 -2.787625044584274292e-02 6.100000000000000000e+02
2.879114627838134766e+00 -1.684096083045005798e-02 -2.826973795890808105e-02 5.970000000000000000e+02
2.880955696105957031e+00 -3.453062847256660461e-02 -2.834128029644489288e-02 6.030000000000000000e+02
2.884686470031738281e+00 -5.227985605597496033e-02 -2.848436683416366577e-02 5.990000000000000000e+02
2.885310411453247070e+00 -7.000327110290527344e-02 -2.852013893425464630e-02 6.150000000000000000e+02
2.879832029342651367e+00 -8.755375444889068604e-02 -2.834128029644489288e-02 5.960000000000000000e+02
2.885232686996459961e+00 -1.054417490959167480e-01 -2.855591103434562683e-02 6.540000000000000000e+02
2.898509740829467773e+00 -1.237407699227333069e-01 -2.905671298503875732e-02 6.360000000000000000e+02
2.895699501037597656e+00 -1.414257436990737915e-01 -2.898517064750194550e-02 6.020000000000000000e+02
2.888790130615234375e+00 -1.588611751794815063e-01 -2.877053990960121155e-02 5.330000000000000000e+02
2.884768486022949219e+00 -1.764003038406372070e-01 -2.866322547197341919e-02 4.610000000000000000e+02
2.899585485458374023e+00 -1.951723545789718628e-01 -2.923557162284851074e-02 2.720000000000000000e+02
2.843516588211059570e+00 -2.089293003082275391e-01 -2.726813219487667084e-02 1.670000000000000000e+02
2.934827804565429688e+00 -2.337573617696762085e-01 -3.059489279985427856e-02 5.100000000000000000e+01
3.990594387054443359e+00 -1.856238722801208496e+00 -8.274991065263748169e-02 2.400000000000000000e+01
3.989068269729614258e+00 -1.885387420654296875e+00 -8.314339816570281982e-02 2.400000000000000000e+01
3.970217704772949219e+00 -1.906367540359497070e+00 -8.285722136497497559e-02 2.200000000000000000e+01
3.846170663833618164e+00 -1.875926136970520020e+00 -7.838577032089233398e-02 1.110000000000000000e+02
3.971598625183105469e+00 -1.967366337776184082e+00 -8.385883271694183350e-02 1.840000000000000000e+02
3.902315855026245117e+00 -1.962954998016357422e+00 -8.156944811344146729e-02 1.010000000000000000e+02
3.906217575073242188e+00 -1.995044708251953125e+00 -8.221333473920822144e-02 6.100000000000000000e+01
3.867287397384643555e+00 -2.005174160003662109e+00 -8.114018291234970093e-02 7.700000000000000000e+01
3.842530488967895508e+00 -2.022348880767822266e+00 -8.063938468694686890e-02 1.370000000000000000e+02
3.850322961807250977e+00 -2.056718587875366211e+00 -8.146212995052337646e-02 1.300000000000000000e+02
3.867501497268676758e+00 -2.096498966217041016e+00 -8.267836272716522217e-02 6.700000000000000000e+01
3.880833625793457031e+00 -2.134640455245971680e+00 -8.375151455402374268e-02 4.200000000000000000e+01
3.867390632629394531e+00 -2.189489126205444336e+00 -8.428809046745300293e-02 3.300000000000000000e+01
3.741787910461425781e+00 -2.179439067840576172e+00 -8.021012693643569946e-02 1.900000000000000000e+01
3.687043905258178711e+00 -2.177958488464355469e+00 -7.849308848381042480e-02 1.400000000000000000e+01
3.751625061035156250e+00 -2.247276306152343750e+00 -8.174830675125122070e-02 1.900000000000000000e+01
3.695684194564819336e+00 -2.275851249694824219e+00 -8.056784421205520630e-02 3.500000000000000000e+01
3.673173427581787109e+00 -2.293192148208618164e+00 -8.021012693643569946e-02 2.800000000000000000e+01
3.673388719558715820e+00 -2.324772834777832031e+00 -8.081824332475662231e-02 6.100000000000000000e+01
3.617839336395263672e+00 -2.320826530456542969e+00 -7.906543463468551636e-02 5.100000000000000000e+01
3.623638391494750977e+00 -2.356056451797485352e+00 -7.992395013570785522e-02 1.900000000000000000e+01
3.671697616577148438e+00 -2.419489860534667969e+00 -8.260682225227355957e-02 1.100000000000000000e+01
3.629357814788818359e+00 -2.423657655715942383e+00 -8.142635971307754517e-02 1.630000000000000000e+02
2.819051742553710938e+00 4.178397059440612793e-01 -3.614272549748420715e-02 2.350000000000000000e+02
2.800786733627319336e+00 3.975840210914611816e-01 -3.532559424638748169e-02 3.630000000000000000e+02
2.819016218185424805e+00 3.825420141220092773e-01 -3.594817221164703369e-02 4.880000000000000000e+02
2.828247070312500000e+00 3.661360740661621094e-01 -3.622054681181907654e-02 5.770000000000000000e+02
2.828456878662109375e+00 3.485308587551116943e-01 -3.614272549748420715e-02 6.820000000000000000e+02
2.844436645507812500e+00 3.327956795692443848e-01 -3.668747842311859131e-02 6.610000000000000000e+02
2.857349872589111328e+00 3.165472149848937988e-01 -3.711550310254096985e-02 6.180000000000000000e+02
2.838368415832519531e+00 2.968251407146453857e-01 -3.629837185144424438e-02 7.320000000000000000e+02
2.840136051177978516e+00 2.794036567211151123e-01 -3.629837185144424438e-02 6.760000000000000000e+02
2.841797113418579102e+00 2.619716525077819824e-01 -3.629837185144424438e-02 6.770000000000000000e+02
2.846337795257568359e+00 2.447867989540100098e-01 -3.641510382294654846e-02 6.610000000000000000e+02
2.852766513824462891e+00 2.277152389287948608e-01 -3.660965710878372192e-02 6.560000000000000000e+02
2.867064952850341797e+00 2.111616134643554688e-01 -3.711550310254096985e-02 6.850000000000000000e+02
2.865315675735473633e+00 1.933636367321014404e-01 -3.699876740574836731e-02 6.950000000000000000e+02
2.861461400985717773e+00 1.754726469516754150e-01 -3.680421411991119385e-02 6.620000000000000000e+02
2.866475105285644531e+00 1.581321507692337036e-01 -3.695985674858093262e-02 6.900000000000000000e+02
2.865395307540893555e+00 1.404428631067276001e-01 -3.688203543424606323e-02 7.050000000000000000e+02
2.860213279724121094e+00 1.226013675332069397e-01 -3.664856776595115662e-02 6.650000000000000000e+02
2.868900299072265625e+00 1.053429245948791504e-01 -3.695985674858093262e-02 7.010000000000000000e+02
2.871490240097045898e+00 8.779889345169067383e-02 -3.703767806291580200e-02 7.250000000000000000e+02
2.871974706649780273e+00 7.017810642719268799e-02 -3.703767806291580200e-02 7.230000000000000000e+02
2.866356849670410156e+00 5.244465172290802002e-02 -3.680421411991119385e-02 7.540000000000000000e+02
2.871620655059814453e+00 3.491706773638725281e-02 -3.699876740574836731e-02 7.200000000000000000e+02
2.867783784866333008e+00 1.727216877043247223e-02 -3.684312477707862854e-02 7.330000000000000000e+02
2.869834423065185547e+00 -3.246555570513010025e-04 -3.692094609141349792e-02 7.290000000000000000e+02
2.874774456024169922e+00 -1.796455122530460358e-02 -3.711550310254096985e-02 7.090000000000000000e+02
2.887599229812622070e+00 -3.576361387968063354e-02 -3.762134537100791931e-02 7.150000000000000000e+02
2.893319845199584961e+00 -5.359160155057907104e-02 -3.785480931401252747e-02 7.580000000000000000e+02
2.891937732696533203e+00 -7.131909579038619995e-02 -3.781589865684509277e-02 7.610000000000000000e+02
2.892444372177124023e+00 -8.909305185079574585e-02 -3.785480931401252747e-02 7.430000000000000000e+02
2.895837545394897461e+00 -1.069864183664321899e-01 -3.801045566797256470e-02 7.570000000000000000e+02
2.904111385345458984e+00 -1.251395642757415771e-01 -3.836065530776977539e-02 7.640000000000000000e+02
2.910275220870971680e+00 -1.433001011610031128e-01 -3.863302990794181824e-02 7.370000000000000000e+02
2.900361776351928711e+00 -1.606576442718505859e-01 -3.828283026814460754e-02 5.830000000000000000e+02
2.893337249755859375e+00 -1.780829280614852905e-01 -3.804936632513999939e-02 4.960000000000000000e+02
2.928080797195434570e+00 -1.982608586549758911e-01 -3.945016115903854370e-02 2.440000000000000000e+02
2.869010210037231445e+00 -2.119568288326263428e-01 -3.719332441687583923e-02 1.660000000000000000e+02
3.961848735809326172e+00 -1.785777091979980469e+00 -9.439251571893692017e-02 3.800000000000000000e+01
3.956267595291137695e+00 -1.812549829483032227e+00 -9.462598711252212524e-02 3.100000000000000000e+01
3.992177724838256836e+00 -1.858720898628234863e+00 -9.664935618638992310e-02 3.300000000000000000e+01
3.994246959686279297e+00 -1.889590620994567871e+00 -9.723301976919174194e-02 3.300000000000000000e+01
3.978074073791503906e+00 -1.911899209022521973e+00 -9.703847020864486694e-02 2.400000000000000000e+01
3.914185762405395508e+00 -1.910848975181579590e+00 -9.478162974119186401e-02 8.100000000000000000e+01
3.918502092361450195e+00 -1.942818999290466309e+00 -9.548202902078628540e-02 1.130000000000000000e+02
3.901152372360229492e+00 -1.964129924774169922e+00 -9.524855762720108032e-02 9.000000000000000000e+01
3.869452714920043945e+00 -1.978024721145629883e+00 -9.439251571893692017e-02 4.700000000000000000e+01
3.878529548645019531e+00 -2.012775659561157227e+00 -9.532637894153594971e-02 3.200000000000000000e+01
3.952748298645019531e+00 -2.082171916961669922e+00 -9.913966059684753418e-02 2.700000000000000000e+01
3.895836591720581055e+00 -2.082831859588623047e+00 -9.719411283731460571e-02 2.300000000000000000e+01
3.910251140594482422e+00 -2.152648687362670898e+00 -9.898401796817779541e-02 2.400000000000000000e+01
3.804493904113769531e+00 -2.124954938888549805e+00 -9.485945105552673340e-02 2.000000000000000000e+01
3.694010972976684570e+00 -2.093090772628784180e+00 -9.050141274929046631e-02 1.700000000000000000e+01
3.757338285446166992e+00 -2.159532308578491211e+00 -9.392558783292770386e-02 2.100000000000000000e+01
3.778548717498779297e+00 -2.202674388885498047e+00 -9.548202902078628540e-02 2.000000000000000000e+01
3.711630582809448242e+00 -2.194291353225708008e+00 -9.306954592466354370e-02 1.700000000000000000e+01
3.710952520370483398e+00 -2.224730491638183594e+00 -9.365320950746536255e-02 1.700000000000000000e+01
3.684423685073852539e+00 -2.239673376083374023e+00 -9.306954592466354370e-02 1.600000000000000000e+01
3.670612096786499023e+00 -2.262238502502441406e+00 -9.306954592466354370e-02 2.800000000000000000e+01
3.666831493377685547e+00 -2.291071653366088867e+00 -9.353647381067276001e-02 1.600000000000000000e+01
3.634976863861083984e+00 -2.302300453186035156e+00 -9.271934628486633301e-02 2.100000000000000000e+01
3.604804754257202148e+00 -2.314304590225219727e+00 -9.198003262281417847e-02 2.000000000000000000e+01
3.608963012695312500e+00 -2.348368644714355469e+00 -9.283607453107833862e-02 1.100000000000000000e+01
3.557780981063842773e+00 -2.346264839172363281e+00 -9.112399071455001831e-02 1.500000000000000000e+01
3.621413707733154297e+00 -2.420239210128784180e+00 -9.478162974119186401e-02 1.940000000000000000e+02
3.618906021118164062e+00 -2.450818300247192383e+00 -9.536529332399368286e-02 3.900000000000000000e+01
2.746249914169311523e+00 4.226582348346710205e-01 -4.110134765505790710e-02 1.200000000000000000e+02
2.827862739562988281e+00 4.174872934818267822e-01 -4.443744942545890808e-02 2.280000000000000000e+02
2.824435710906982422e+00 3.992878198623657227e-01 -4.418724402785301208e-02 3.610000000000000000e+02
2.818911552429199219e+00 3.808782398700714111e-01 -4.385363310575485229e-02 4.790000000000000000e+02
2.821195602416992188e+00 3.635745644569396973e-01 -4.385363310575485229e-02 5.330000000000000000e+02
2.833290100097656250e+00 3.474751412868499756e-01 -4.427064582705497742e-02 5.710000000000000000e+02
2.837353467941284180e+00 3.303152918815612793e-01 -4.435404762625694275e-02 4.800000000000000000e+02
2.847271680831909180e+00 3.137763142585754395e-01 -4.468765854835510254e-02 5.250000000000000000e+02
2.843180894851684570e+00 2.956787645816802979e-01 -4.443744942545890808e-02 5.200000000000000000e+02
2.842952966690063477e+00 2.780329287052154541e-01 -4.435404762625694275e-02 5.470000000000000000e+02
2.837640762329101562e+00 2.599444091320037842e-01 -4.406213760375976562e-02 5.340000000000000000e+02
2.835200309753417969e+00 2.421872466802597046e-01 -4.389533400535583496e-02 5.380000000000000000e+02
2.826673030853271484e+00 2.239951938390731812e-01 -4.347832128405570984e-02 4.970000000000000000e+02
2.849916458129882812e+00 2.082526087760925293e-01 -4.439574852585792542e-02 5.710000000000000000e+02
2.857121944427490234e+00 1.911631822586059570e-01 -4.464595764875411987e-02 5.670000000000000000e+02
2.860235691070556641e+00 1.737501174211502075e-01 -4.472935944795608521e-02 5.600000000000000000e+02
2.854264497756958008e+00 1.558143198490142822e-01 -4.443744942545890808e-02 5.380000000000000000e+02
2.844189405441284180e+00 1.377643048763275146e-01 -4.397873580455780029e-02 5.780000000000000000e+02
2.838991641998291016e+00 1.200557649135589600e-01 -4.372852668166160583e-02 5.460000000000000000e+02
2.846664190292358398e+00 1.028876230120658875e-01 -4.402043670415878296e-02 5.410000000000000000e+02
2.852235317230224609e+00 8.556956052780151367e-02 -4.422894492745399475e-02 5.850000000000000000e+02
2.849710226058959961e+00 6.799493730068206787e-02 -4.410383850336074829e-02 5.570000000000000000e+02
2.865058183670043945e+00 5.077634751796722412e-02 -4.472935944795608521e-02 6.350000000000000000e+02
2.861319541931152344e+00 3.314872831106185913e-02 -4.456255212426185608e-02 5.960000000000000000e+02
2.870461225509643555e+00 1.564194262027740479e-02 -4.493786394596099854e-02 5.960000000000000000e+02
2.875498771667480469e+00 -1.973730977624654770e-03 -4.514637216925621033e-02 5.900000000000000000e+02
2.882426261901855469e+00 -1.966392248868942261e-02 -4.543828219175338745e-02 6.040000000000000000e+02
2.890243768692016602e+00 -3.745197132229804993e-02 -4.577188938856124878e-02 6.060000000000000000e+02
2.897951126098632812e+00 -5.533669143915176392e-02 -4.610550031065940857e-02 5.880000000000000000e+02
2.897557020187377930e+00 -7.311714440584182739e-02 -4.610550031065940857e-02 6.500000000000000000e+02
2.901048421859741211e+00 -9.101948142051696777e-02 -4.627230763435363770e-02 5.770000000000000000e+02
2.906425952911376953e+00 -1.090419888496398926e-01 -4.652251303195953369e-02 5.830000000000000000e+02
2.896718502044677734e+00 -1.264827251434326172e-01 -4.614720121026039124e-02 5.680000000000000000e+02
2.893892049789428711e+00 -1.441551893949508667e-01 -4.606379941105842590e-02 5.090000000000000000e+02
2.890957832336425781e+00 -1.617977470159530640e-01 -4.598039761185646057e-02 4.230000000000000000e+02
2.865977525711059570e+00 -1.780506074428558350e-01 -4.497956484556198120e-02 3.300000000000000000e+02
2.884767532348632812e+00 -1.969904899597167969e-01 -4.581359028816223145e-02 8.500000000000000000e+01
3.940876007080078125e+00 -1.720966100692749023e+00 -1.046123877167701721e-01 1.590000000000000000e+02
3.925676107406616211e+00 -1.743087649345397949e+00 -1.044038832187652588e-01 2.800000000000000000e+01
3.879389286041259766e+00 -1.751115202903747559e+00 -1.027775332331657410e-01 1.600000000000000000e+01
3.963928937911987305e+00 -1.818621635437011719e+00 -1.071561649441719055e-01 2.800000000000000000e+01
3.863947629928588867e+00 -1.801544070243835449e+00 -1.030694395303726196e-01 9.700000000000000000e+01
3.874492406845092773e+00 -1.835482478141784668e+00 -1.040702685713768005e-01 1.290000000000000000e+02
3.982002258300781250e+00 -1.916400909423828125e+00 -1.095748394727706909e-01 5.900000000000000000e+01
3.915410757064819336e+00 -1.914037585258483887e+00 -1.070310622453689575e-01 3.300000000000000000e+01
3.888378381729125977e+00 -1.930474758148193359e+00 -1.063221395015716553e-01 5.400000000000000000e+01
3.867537975311279297e+00 -1.949800252914428711e+00 -1.059051230549812317e-01 2.600000000000000000e+01
3.866174697875976562e+00 -1.978955984115600586e+00 -1.064055413007736206e-01 1.500000000000000000e+01
3.774521827697753906e+00 -2.234188079833984375e+00 -1.081986948847770691e-01 1.200000000000000000e+01
3.739561080932617188e+00 -2.307482719421386719e+00 -1.085323095321655273e-01 1.400000000000000000e+01
3.720249414443969727e+00 -2.327206134796142578e+00 -1.082820966839790344e-01 1.100000000000000000e+01
3.626578569412231445e+00 -2.299702644348144531e+00 -1.043621823191642761e-01 1.600000000000000000e+01
3.610718488693237305e+00 -2.320831537246704102e+00 -1.042787805199623108e-01 2.700000000000000000e+01
3.614829063415527344e+00 -2.354938745498657227e+00 -1.051962077617645264e-01 1.500000000000000000e+01
3.580298662185668945e+00 -2.363864898681640625e+00 -1.041953712701797485e-01 2.500000000000000000e+01
3.575692415237426758e+00 -2.392454862594604492e+00 -1.046957895159721375e-01 8.500000000000000000e+01
3.560945272445678711e+00 -2.414349794387817383e+00 -1.046957895159721375e-01 9.300000000000000000e+01
2.750226497650146484e+00 3.931570053100585938e-01 -5.026922374963760376e-02 6.700000000000000000e+01
2.825832605361938477e+00 3.862737417221069336e-01 -5.360028147697448730e-02 2.600000000000000000e+02
2.826168298721313477e+00 3.686693906784057617e-01 -5.351025238633155823e-02 3.420000000000000000e+02
2.822428941726684570e+00 3.505836129188537598e-01 -5.324016511440277100e-02 3.930000000000000000e+02
2.815597772598266602e+00 3.322069644927978516e-01 -5.283503606915473938e-02 3.730000000000000000e+02
2.819568872451782227e+00 3.151461184024810791e-01 -5.292506515979766846e-02 3.960000000000000000e+02
2.828403711318969727e+00 2.985725402832031250e-01 -5.324016511440277100e-02 4.350000000000000000e+02
2.833164930343627930e+00 2.815079391002655029e-01 -5.337520688772201538e-02 3.860000000000000000e+02
2.831854820251464844e+00 2.638411819934844971e-01 -5.324016511440277100e-02 3.980000000000000000e+02
2.833420276641845703e+00 2.464602887630462646e-01 -5.324016511440277100e-02 3.870000000000000000e+02
2.828904867172241211e+00 2.285883873701095581e-01 -5.297008156776428223e-02 4.150000000000000000e+02
2.854163646697998047e+00 2.130064368247985840e-01 -5.405042320489883423e-02 4.030000000000000000e+02
2.855416774749755859e+00 1.954896152019500732e-01 -5.405042320489883423e-02 3.810000000000000000e+02
2.857559680938720703e+00 1.780273616313934326e-01 -5.409543588757514954e-02 4.010000000000000000e+02
2.855605840682983398e+00 1.603228896856307983e-01 -5.396039411425590515e-02 3.920000000000000000e+02
2.853542566299438477e+00 1.426490843296051025e-01 -5.382535234093666077e-02 4.360000000000000000e+02
2.850372076034545898e+00 1.249630749225616455e-01 -5.364529415965080261e-02 3.970000000000000000e+02
2.852083444595336914e+00 1.075086221098899841e-01 -5.369030684232711792e-02 4.160000000000000000e+02
2.857681989669799805e+00 9.016319364309310913e-02 -5.391538143157958984e-02 4.260000000000000000e+02
2.861177444458007812e+00 7.270269840955734253e-02 -5.405042320489883423e-02 4.450000000000000000e+02
2.864566087722778320e+00 5.520269647240638733e-02 -5.418546497821807861e-02 4.220000000000000000e+02
2.859856367111206055e+00 3.756028413772583008e-02 -5.396039411425590515e-02 4.620000000000000000e+02
2.866026639938354492e+00 2.005272544920444489e-02 -5.423048138618469238e-02 4.470000000000000000e+02
2.865096807479858398e+00 2.466051606461405754e-03 -5.418546497821807861e-02 4.720000000000000000e+02
2.864058971405029297e+00 -1.510845497250556946e-02 -5.414045229554176331e-02 4.590000000000000000e+02
2.866909265518188477e+00 -3.271642327308654785e-02 -5.427549406886100769e-02 4.360000000000000000e+02
2.864656686782836914e+00 -5.027142912149429321e-02 -5.418546497821807861e-02 4.630000000000000000e+02
2.861298322677612305e+00 -6.777619570493698120e-02 -5.405042320489883423e-02 4.620000000000000000e+02
2.865821123123168945e+00 -8.548130095005035400e-02 -5.427549406886100769e-02 4.830000000000000000e+02
2.875226020812988281e+00 -1.034248843789100647e-01 -5.472563579678535461e-02 4.520000000000000000e+02
2.886514425277709961e+00 -1.215714961290359497e-01 -5.526580661535263062e-02 4.730000000000000000e+02
2.890703439712524414e+00 -1.395221948623657227e-01 -5.549088120460510254e-02 4.510000000000000000e+02
2.887797832489013672e+00 -1.571476757526397705e-01 -5.540085211396217346e-02 4.910000000000000000e+02
2.884784936904907227e+00 -1.747427731752395630e-01 -5.531082302331924438e-02 4.590000000000000000e+02
2.880668163299560547e+00 -1.922401189804077148e-01 -5.517578125000000000e-02 3.150000000000000000e+02
2.853529691696166992e+00 -2.080190032720565796e-01 -5.400540679693222046e-02 1.540000000000000000e+02
2.841245174407958984e+00 -2.246559262275695801e-01 -5.351025238633155823e-02 7.100000000000000000e+01
3.957426548004150391e+00 -1.721453666687011719e+00 -1.195461973547935486e-01 1.850000000000000000e+02
3.920515537261962891e+00 -1.762921094894409180e+00 -1.187809556722640991e-01 4.800000000000000000e+01
3.937789201736450195e+00 -1.799820661544799805e+00 -1.201763972640037537e-01 1.720000000000000000e+02
3.926671504974365234e+00 -1.823948621749877930e+00 -1.201763972640037537e-01 1.610000000000000000e+02
3.902759075164794922e+00 -1.842036843299865723e+00 -1.195461973547935486e-01 1.980000000000000000e+02
3.885978698730468750e+00 -1.863356828689575195e+00 -1.192761138081550598e-01 2.130000000000000000e+02
3.875370264053344727e+00 -1.887603282928466797e+00 -1.193211302161216736e-01 1.850000000000000000e+02
3.861029148101806641e+00 -1.910017371177673340e+00 -1.191860809922218323e-01 1.450000000000000000e+02
3.878693342208862305e+00 -1.948474168777465820e+00 -1.206715553998947144e-01 2.000000000000000000e+01
3.649721860885620117e+00 -2.063658952713012695e+00 -1.140094399452209473e-01 1.900000000000000000e+01
3.870948314666748047e+00 -2.220238924026489258e+00 -1.261633038520812988e-01 1.900000000000000000e+01
3.859500169754028320e+00 -2.406680107116699219e+00 -1.300345212221145630e-01 1.500000000000000000e+01
3.643701553344726562e+00 -2.303253889083862305e+00 -1.193211302161216736e-01 1.100000000000000000e+01
3.585003852844238281e+00 -2.328203201293945312e+00 -1.177006140351295471e-01 5.300000000000000000e+01
3.573988437652587891e+00 -2.352353811264038086e+00 -1.178806722164154053e-01 2.800000000000000000e+01
3.538712024688720703e+00 -2.360378265380859375e+00 -1.167553141713142395e-01 2.500000000000000000e+01
3.539059162139892578e+00 -2.392118453979492188e+00 -1.175655722618103027e-01 3.010000000000000000e+02
