# .PCD v.7 - Point Cloud Data file format
VERSION .7
FIELDS x y z intensity
SIZE 4 4 4 4
TYPE F F F F
COUNT 1 1 1 1
WIDTH 470
HEIGHT 1
VIEWPOINT 0 0 0 1 0 0 0
POINTS 470
DATA ascii
2.857065200805664062e+00 -5.509507656097412109e-01 3.284732624888420105e-02 6.950000000000000000e+02
2.845785617828369141e+00 -5.669086575508117676e-01 3.296181559562683105e-02 6.370000000000000000e+02
2.860862731933593750e+00 -5.881842970848083496e-01 3.268990293145179749e-02 7.280000000000000000e+02
2.857199668884277344e+00 -6.057271361351013184e-01 3.268990293145179749e-02 7.220000000000000000e+02
2.840729951858520508e+00 -6.204741001129150391e-01 3.287594765424728394e-02 6.590000000000000000e+02
2.837844848632812500e+00 -6.381121277809143066e-01 3.286163881421089172e-02 7.260000000000000000e+02
2.837772846221923828e+00 -6.564139127731323242e-01 3.280439227819442749e-02 6.900000000000000000e+02
2.842446804046630859e+00 -6.758951544761657715e-01 3.267559036612510681e-02 6.220000000000000000e+02
2.820761680603027344e+00 -6.890533566474914551e-01 3.293319419026374817e-02 5.140000000000000000e+02
2.824239730834960938e+00 -7.082936763763427734e-01 3.281870484352111816e-02 4.410000000000000000e+02
2.796599626541137695e+00 -7.196305394172668457e-01 3.316217288374900818e-02 1.750000000000000000e+02
2.792131423950195312e+00 -7.367766499519348145e-01 3.316217288374900818e-02 1.130000000000000000e+02
3.927853107452392578e+00 -2.731942415237426758e+00 6.013804581016302109e-03 1.200000000000000000e+02
3.799036741256713867e+00 -2.677088499069213867e+00 7.974441163241863251e-03 1.720000000000000000e+02
3.800442934036254883e+00 -2.713129281997680664e+00 7.659594062715768814e-03 2.450000000000000000e+02
3.726197004318237305e+00 -2.694796562194824219e+00 8.675689809024333954e-03 1.870000000000000000e+02
3.699105739593505859e+00 -2.709928035736083984e+00 8.861735463142395020e-03 2.170000000000000000e+02
3.685620307922363281e+00 -2.734957456588745117e+00 8.804490789771080017e-03 2.270000000000000000e+02
3.617613077163696289e+00 -2.719073295593261719e+00 9.720408357679843903e-03 7.140000000000000000e+02
3.608817338943481445e+00 -2.747275590896606445e+00 9.577296674251556396e-03 7.160000000000000000e+02
3.591892242431640625e+00 -2.769367218017578125e+00 9.577296674251556396e-03 9.360000000000000000e+02
3.589806556701660156e+00 -2.803046226501464844e+00 9.305383078753948212e-03 7.710000000000000000e+02
3.533323049545288086e+00 -2.794011354446411133e+00 1.002094428986310959e-02 4.350000000000000000e+02
3.523137569427490234e+00 -2.821263551712036133e+00 9.892143309116363525e-03 3.850000000000000000e+02
3.491003513336181641e+00 -2.830862760543823242e+00 1.016405597329139709e-02 2.720000000000000000e+02
2.893112659454345703e+00 -9.127490967512130737e-02 2.401146292686462402e-02 1.710000000000000000e+02
2.897494077682495117e+00 -1.092124432325363159e-01 2.392420172691345215e-02 2.230000000000000000e+02
2.874793529510498047e+00 -1.260294765233993530e-01 2.430815435945987701e-02 4.460000000000000000e+02
2.894937038421630859e+00 -1.447111815214157104e-01 2.394165284931659698e-02 6.000000000000000000e+02
2.894992828369140625e+00 -1.625273227691650391e-01 2.392420172691345215e-02 6.400000000000000000e+02
2.888951539993286133e+00 -1.799776256084442139e-01 2.401146292686462402e-02 5.610000000000000000e+02
2.887792825698852539e+00 -1.977005153894424438e-01 2.401146292686462402e-02 5.880000000000000000e+02
2.883534193038940430e+00 -2.151932418346405029e-01 2.406382001936435699e-02 6.040000000000000000e+02
2.875183105468750000e+00 -2.323197275400161743e-01 2.418598718941211700e-02 5.440000000000000000e+02
2.874699592590332031e+00 -2.500436305999755859e-01 2.416853420436382294e-02 5.700000000000000000e+02
2.879084587097167969e+00 -2.682332098484039307e-01 2.406382001936435699e-02 5.870000000000000000e+02
2.880369424819946289e+00 -2.861899435520172119e-01 2.401146292686462402e-02 5.810000000000000000e+02
2.882536411285400391e+00 -3.042773306369781494e-01 2.394165284931659698e-02 6.110000000000000000e+02
2.878627777099609375e+00 -3.217367529869079590e-01 2.397655881941318512e-02 6.110000000000000000e+02
2.869648694992065430e+00 -3.385747373104095459e-01 2.409872598946094513e-02 5.610000000000000000e+02
2.873470783233642578e+00 -3.569146394729614258e-01 2.399401180446147919e-02 5.940000000000000000e+02
2.891056060791015625e+00 -3.771224021911621094e-01 2.364496327936649323e-02 6.270000000000000000e+02
2.887696981430053711e+00 -3.947192430496215820e-01 2.366241440176963806e-02 6.180000000000000000e+02
2.861465215682983398e+00 -4.090387821197509766e-01 2.408127300441265106e-02 5.550000000000000000e+02
2.854945898056030273e+00 -4.259991347789764404e-01 2.415108308196067810e-02 5.580000000000000000e+02
2.853266239166259766e+00 -4.436621963977813721e-01 2.413363009691238403e-02 5.790000000000000000e+02
2.850490331649780273e+00 -4.611611664295196533e-01 2.413363009691238403e-02 5.720000000000000000e+02
2.848592996597290039e+00 -4.788083136081695557e-01 2.411617711186408997e-02 5.350000000000000000e+02
2.842646360397338867e+00 -4.957631230354309082e-01 2.416853420436382294e-02 5.870000000000000000e+02
2.833647251129150391e+00 -5.121300220489501953e-01 2.427325025200843811e-02 5.610000000000000000e+02
2.829468727111816406e+00 -5.293236374855041504e-01 2.429070137441158295e-02 5.390000000000000000e+02
2.832057714462280273e+00 -5.478132367134094238e-01 2.418598718941211700e-02 5.450000000000000000e+02
2.839428663253784180e+00 -5.673331618309020996e-01 2.399401180446147919e-02 6.000000000000000000e+02
2.841769695281982422e+00 -5.859553813934326172e-01 2.388929575681686401e-02 5.490000000000000000e+02
2.841054916381835938e+00 -6.040043830871582031e-01 2.383693866431713104e-02 5.440000000000000000e+02
2.844132661819458008e+00 -6.229216456413269043e-01 2.371477335691452026e-02 5.300000000000000000e+02
2.844158411026000977e+00 -6.412401199340820312e-01 2.364496327936649323e-02 5.390000000000000000e+02
2.830430030822753906e+00 -6.564223170280456543e-01 2.381948754191398621e-02 5.280000000000000000e+02
2.829266786575317383e+00 -6.744722127914428711e-01 2.376713044941425323e-02 5.300000000000000000e+02
2.828959941864013672e+00 -6.927701830863952637e-01 2.369732037186622620e-02 3.860000000000000000e+02
2.819807291030883789e+00 -7.088972926139831543e-01 2.378458157181739807e-02 2.940000000000000000e+02
2.762153387069702148e+00 -7.124603986740112305e-01 2.474446408450603485e-02 3.600000000000000000e+01
3.763262510299682617e+00 -2.586296558380126953e+00 -5.168959964066743851e-03 6.600000000000000000e+01
3.788351535797119141e+00 -2.637901544570922852e+00 -6.041580345481634140e-03 1.470000000000000000e+02
3.739411830902099609e+00 -2.638045549392700195e+00 -5.343484226614236832e-03 2.120000000000000000e+02
3.700376272201538086e+00 -2.644664525985717773e+00 -4.854816943407058716e-03 2.450000000000000000e+02
3.668690681457519531e+00 -2.656180858612060547e+00 -4.523220937699079514e-03 1.980000000000000000e+02
3.628134012222290039e+00 -2.660904645919799805e+00 -3.999649081379175186e-03 2.290000000000000000e+02
3.598093271255493164e+00 -2.672981739044189453e+00 -3.702958114445209503e-03 5.390000000000000000e+02
3.570438385009765625e+00 -2.686593770980834961e+00 -3.458624240010976791e-03 3.500000000000000000e+02
3.566611289978027344e+00 -2.718146562576293945e+00 -3.737862920388579369e-03 3.270000000000000000e+02
3.494456291198730469e+00 -2.697221279144287109e+00 -2.516194479539990425e-03 1.500000000000000000e+02
2.821872949600219727e+00 -1.193288266658782959e-01 1.640296913683414459e-02 1.070000000000000000e+02
2.876011133193969727e+00 -1.393112540245056152e-01 1.527033001184463501e-02 3.340000000000000000e+02
2.878097057342529297e+00 -1.571195274591445923e-01 1.520854979753494263e-02 3.470000000000000000e+02
2.877078771591186523e+00 -1.747762411832809448e-01 1.520854979753494263e-02 4.200000000000000000e+02
2.875952243804931641e+00 -1.924263685941696167e-01 1.520854979753494263e-02 4.130000000000000000e+02
2.883691310882568359e+00 -2.107266038656234741e-01 1.502320915460586548e-02 4.250000000000000000e+02
2.892310619354248047e+00 -2.292081713676452637e-01 1.481727510690689087e-02 3.790000000000000000e+02
2.896826744079589844e+00 -2.474623620510101318e-01 1.469371467828750610e-02 4.480000000000000000e+02
2.893262386322021484e+00 -2.650495469570159912e-01 1.473490148782730103e-02 4.310000000000000000e+02
2.885611534118652344e+00 -2.822123467922210693e-01 1.485846191644668579e-02 4.290000000000000000e+02
2.873881578445434570e+00 -2.988769114017486572e-01 1.506439596414566040e-02 4.330000000000000000e+02
2.857087373733520508e+00 -3.148597478866577148e-01 1.537329703569412231e-02 4.220000000000000000e+02
2.845170974731445312e+00 -3.312267363071441650e-01 1.557923201471567154e-02 4.450000000000000000e+02
2.850031375885009766e+00 -3.495312929153442383e-01 1.543507818132638931e-02 4.460000000000000000e+02
2.856757164001464844e+00 -3.681638240814208984e-01 1.524973660707473755e-02 4.700000000000000000e+02
2.856425762176513672e+00 -3.859537243843078613e-01 1.520854979753494263e-02 4.040000000000000000e+02
2.854003906250000000e+00 -4.034731388092041016e-01 1.520854979753494263e-02 4.230000000000000000e+02
2.850485563278198242e+00 -4.208312034606933594e-01 1.522914320230484009e-02 3.840000000000000000e+02
2.846861600875854492e+00 -4.381612837314605713e-01 1.524973660707473755e-02 4.050000000000000000e+02
2.850042343139648438e+00 -4.565709531307220459e-01 1.512617617845535278e-02 3.860000000000000000e+02
2.849159717559814453e+00 -4.743786156177520752e-01 1.508498936891555786e-02 4.500000000000000000e+02
2.847180604934692383e+00 -4.920222461223602295e-01 1.506439596414566040e-02 4.390000000000000000e+02
2.843123912811279297e+00 -5.093064904212951660e-01 1.508498936891555786e-02 4.160000000000000000e+02
2.842894315719604492e+00 -5.272894501686096191e-01 1.502320915460586548e-02 4.000000000000000000e+02
2.831750392913818359e+00 -5.432150363922119141e-01 1.518795639276504517e-02 4.260000000000000000e+02
2.824441432952880859e+00 -5.598018765449523926e-01 1.527033001184463501e-02 4.040000000000000000e+02
2.828788995742797852e+00 -5.787262916564941406e-01 1.510558277368545532e-02 4.310000000000000000e+02
2.830075979232788086e+00 -5.971053242683410645e-01 1.500261574983596802e-02 4.070000000000000000e+02
2.828312635421752930e+00 -6.148842573165893555e-01 1.496142894029617310e-02 3.980000000000000000e+02
2.824486494064331055e+00 -6.322268843650817871e-01 1.496142894029617310e-02 3.870000000000000000e+02
2.852704286575317383e+00 -6.569554209709167480e-01 1.428184565156698227e-02 3.860000000000000000e+02
2.839864015579223633e+00 -6.723722815513610840e-01 1.446718629449605942e-02 4.120000000000000000e+02
2.832770586013793945e+00 -6.890752911567687988e-01 1.452896650880575180e-02 3.590000000000000000e+02
2.823639392852783203e+00 -7.052317261695861816e-01 1.463193446397781372e-02 3.700000000000000000e+02
2.819259166717529297e+00 -7.225439548492431641e-01 1.463193446397781372e-02 1.600000000000000000e+02
2.810904979705810547e+00 -7.388117909431457520e-01 1.471430808305740356e-02 1.460000000000000000e+02
3.768351316452026367e+00 -2.581933498382568359e+00 -1.951197162270545959e-02 1.210000000000000000e+02
3.747510671615600586e+00 -2.601585626602172852e+00 -1.938841119408607483e-02 2.020000000000000000e+02
3.711852073669433594e+00 -2.610724449157714844e+00 -1.889416947960853577e-02 2.080000000000000000e+02
3.686807394027709961e+00 -2.627067804336547852e+00 -1.866764202713966370e-02 2.110000000000000000e+02
3.643058538436889648e+00 -2.629741430282592773e+00 -1.796746440231800079e-02 1.970000000000000000e+02
3.614749431610107422e+00 -2.643192052841186523e+00 -1.765856333076953888e-02 2.010000000000000000e+02
3.481175184249877930e+00 -2.578428506851196289e+00 -1.465192250907421112e-02 9.000000000000000000e+01
3.470086812973022461e+00 -2.603340387344360352e+00 -1.477548293769359589e-02 1.900000000000000000e+01
3.471559047698974609e+00 -2.637892961502075195e+00 -1.522853877395391464e-02 6.400000000000000000e+01
3.481452226638793945e+00 -2.679269313812255859e+00 -1.590812206268310547e-02 4.300000000000000000e+01
3.430253267288208008e+00 -2.673533916473388672e+00 -1.500201039016246796e-02 1.290000000000000000e+02
3.485192775726318359e+00 -2.750907897949218750e+00 -1.687601208686828613e-02 2.100000000000000000e+02
3.467466831207275391e+00 -2.771616697311401367e+00 -1.685541868209838867e-02 1.180000000000000000e+02
3.466713190078735352e+00 -2.806051731109619141e+00 -1.728788204491138458e-02 1.230000000000000000e+02
3.375205993652343750e+00 -2.766419410705566406e+00 -1.531091239303350449e-02 2.150000000000000000e+02
3.341243982315063477e+00 -2.773028135299682617e+00 -1.485785655677318573e-02 7.900000000000000000e+01
3.394577026367187500e+00 -2.852661132812500000e+00 -1.675245165824890137e-02 1.430000000000000000e+02
3.297065258026123047e+00 -2.805397748947143555e+00 -1.459014229476451874e-02 6.300000000000000000e+01
3.276002645492553711e+00 -2.822312116622924805e+00 -1.448717527091503143e-02 4.900000000000000000e+01
3.277457714080810547e+00 -2.858792066574096680e+00 -1.500201039016246796e-02 9.800000000000000000e+01
3.256857633590698242e+00 -2.876200914382934570e+00 -1.491963677108287811e-02 1.110000000000000000e+02
3.219772100448608398e+00 -2.878802061080932617e+00 -1.438420824706554413e-02 4.000000000000000000e+01
2.830327272415161133e+00 -1.034320518374443054e-01 7.875415496528148651e-03 1.360000000000000000e+02
2.868592739105224609e+00 -1.224618703126907349e-01 6.956584751605987549e-03 2.830000000000000000e+02
2.893749237060546875e+00 -1.413303762674331665e-01 6.344031076878309250e-03 4.630000000000000000e+02
2.913789987564086914e+00 -1.602374017238616943e-01 5.849275738000869751e-03 5.150000000000000000e+02
2.905766963958740234e+00 -1.776855438947677612e-01 6.014194339513778687e-03 5.820000000000000000e+02
2.893649816513061523e+00 -1.947724819183349609e-01 6.273351609706878662e-03 5.680000000000000000e+02
2.890406370162963867e+00 -2.123772948980331421e-01 6.320471409708261490e-03 5.970000000000000000e+02
2.893034934997558594e+00 -2.304262220859527588e-01 6.226232275366783142e-03 5.650000000000000000e+02
2.898539066314697266e+00 -2.487720251083374023e-01 6.061313673853874207e-03 5.860000000000000000e+02
2.887002944946289062e+00 -2.656358778476715088e-01 6.296911276876926422e-03 5.920000000000000000e+02
2.879348993301391602e+00 -2.827586233615875244e-01 6.438270211219787598e-03 6.400000000000000000e+02
2.873582601547241211e+00 -3.000051975250244141e-01 6.532509345561265945e-03 5.670000000000000000e+02
2.876656055450439453e+00 -3.181813657283782959e-01 6.414710078388452530e-03 5.520000000000000000e+02
2.877628564834594727e+00 -3.361743688583374023e-01 6.344031076878309250e-03 5.850000000000000000e+02
2.869558095932006836e+00 -3.530919253826141357e-01 6.485389545559883118e-03 5.900000000000000000e+02
2.861388921737670898e+00 -3.699231445789337158e-01 6.626748014241456985e-03 5.850000000000000000e+02
2.867981195449829102e+00 -3.886821866035461426e-01 6.414710078388452530e-03 5.900000000000000000e+02
2.871481180191040039e+00 -4.071148335933685303e-01 6.273351609706878662e-03 6.310000000000000000e+02
2.868928909301757812e+00 -4.247262477874755859e-01 6.273351609706878662e-03 6.090000000000000000e+02
2.863304853439331055e+00 -4.418640732765197754e-01 6.344031076878309250e-03 6.130000000000000000e+02
2.854617357254028320e+00 -4.584731459617614746e-01 6.485389545559883118e-03 5.630000000000000000e+02
2.848792314529418945e+00 -4.754861891269683838e-01 6.556069012731313705e-03 5.190000000000000000e+02
2.851731300354003906e+00 -4.939812421798706055e-01 6.414710078388452530e-03 5.950000000000000000e+02
2.857502460479736328e+00 -5.130603909492492676e-01 6.202672608196735382e-03 6.140000000000000000e+02
2.852334976196289062e+00 -5.302185416221618652e-01 6.249791942536830902e-03 5.560000000000000000e+02
2.852954864501953125e+00 -5.484653115272521973e-01 6.155552808195352554e-03 6.110000000000000000e+02
2.852477312088012695e+00 -5.665448307991027832e-01 6.084873806685209274e-03 5.830000000000000000e+02
2.844050645828247070e+00 -5.830324888229370117e-01 6.202672608196735382e-03 5.720000000000000000e+02
2.840419769287109375e+00 -6.004722714424133301e-01 6.202672608196735382e-03 5.920000000000000000e+02
2.842542648315429688e+00 -6.191664338111877441e-01 6.061313673853874207e-03 5.950000000000000000e+02
2.845518350601196289e+00 -6.381280422210693359e-01 5.896395538002252579e-03 5.610000000000000000e+02
2.839601039886474609e+00 -6.551261544227600098e-01 5.943514872342348099e-03 5.650000000000000000e+02
2.830664396286010742e+00 -6.713834404945373535e-01 6.061313673853874207e-03 5.220000000000000000e+02
2.837175607681274414e+00 -6.913435459136962891e-01 5.802156403660774231e-03 4.570000000000000000e+02
2.828031063079833984e+00 -7.075256705284118652e-01 5.919955205172300339e-03 3.890000000000000000e+02
2.814921855926513672e+00 -7.226271033287048340e-01 6.131993141025304794e-03 1.860000000000000000e+02
2.814301967620849609e+00 -7.409037947654724121e-01 6.037754006683826447e-03 1.540000000000000000e+02
3.560252666473388672e+00 -2.409224510192871094e+00 -2.668675966560840607e-02 1.700000000000000000e+01
3.775435686111450195e+00 -2.588767051696777344e+00 -3.325993195176124573e-02 1.840000000000000000e+02
3.712682723999023438e+00 -2.579369306564331055e+00 -3.191702812910079956e-02 2.020000000000000000e+02
3.691063880920410156e+00 -2.598073005676269531e+00 -3.175210952758789062e-02 2.130000000000000000e+02
3.607495546340942383e+00 -2.572493314743041992e+00 -2.979664877057075500e-02 1.270000000000000000e+02
3.506554603576660156e+00 -2.533107995986938477e+00 -2.732287347316741943e-02 2.900000000000000000e+01
3.472390413284301758e+00 -2.540996551513671875e+00 -2.678099833428859711e-02 2.300000000000000000e+01
3.508133411407470703e+00 -2.600357294082641602e+00 -2.828882262110710144e-02 6.700000000000000000e+01
3.440946817398071289e+00 -2.583416700363159180e+00 -2.678099833428859711e-02 1.380000000000000000e+02
3.422643423080444336e+00 -2.602665901184082031e+00 -2.671031840145587921e-02 1.220000000000000000e+02
3.424825906753540039e+00 -2.637648582458496094e+00 -2.725219354033470154e-02 8.600000000000000000e+01
3.420401096343994141e+00 -2.667836427688598633e+00 -2.760558947920799255e-02 1.000000000000000000e+02
3.411812067031860352e+00 -2.694970607757568359e+00 -2.784118801355361938e-02 1.120000000000000000e+02
3.467813491821289062e+00 -2.773933410644531250e+00 -3.003224544227123260e-02 1.600000000000000000e+02
3.418878078460693359e+00 -2.769358634948730469e+00 -2.906629629433155060e-02 8.000000000000000000e+01
3.346169471740722656e+00 -2.744633436203002930e+00 -2.736999280750751495e-02 6.000000000000000000e+01
3.327727794647216797e+00 -2.763835906982421875e+00 -2.732287347316741943e-02 3.800000000000000000e+01
3.326773643493652344e+00 -2.797715425491333008e+00 -2.781762741506099701e-02 2.900000000000000000e+01
3.380330562591552734e+00 -2.878354549407958984e+00 -3.000868670642375946e-02 2.200000000000000000e+01
2.894977092742919922e+00 -1.074582338333129883e-01 -2.714204601943492889e-03 2.040000000000000000e+02
2.850319862365722656e+00 -1.233207806944847107e-01 -1.539388555102050304e-03 3.920000000000000000e+02
2.907418489456176758e+00 -1.436658650636672974e-01 -3.088009776547551155e-03 5.250000000000000000e+02
2.878535032272338867e+00 -1.599514335393905640e-01 -2.340399427339434624e-03 6.970000000000000000e+02
2.873508453369140625e+00 -1.773646622896194458e-01 -2.233598148450255394e-03 7.200000000000000000e+02
2.872366189956665039e+00 -1.949928402900695801e-01 -2.233598148450255394e-03 7.520000000000000000e+02
2.874106407165527344e+00 -2.128349840641021729e-01 -2.313699107617139816e-03 6.840000000000000000e+02
2.878725051879882812e+00 -2.309454530477523804e-01 -2.473901258781552315e-03 6.940000000000000000e+02
2.886217117309570312e+00 -2.493785768747329712e-01 -2.714204601943492889e-03 6.880000000000000000e+02
2.884632587432861328e+00 -2.670833766460418701e-01 -2.714204601943492889e-03 6.910000000000000000e+02
2.883934497833251953e+00 -2.848763465881347656e-01 -2.740904921665787697e-03 7.010000000000000000e+02
2.886108875274658203e+00 -3.029837310314178467e-01 -2.847706433385610580e-03 6.710000000000000000e+02
2.885189056396484375e+00 -3.207972645759582520e-01 -2.874406753107905388e-03 6.920000000000000000e+02
2.886144876480102539e+00 -3.388439118862152100e-01 -2.954507945105433464e-03 7.270000000000000000e+02
2.867145776748657227e+00 -3.544624745845794678e-01 -2.500601578503847122e-03 6.500000000000000000e+02
2.869873523712158203e+00 -3.726916909217834473e-01 -2.634103409945964813e-03 6.890000000000000000e+02
2.871494770050048828e+00 -3.908329308032989502e-01 -2.740904921665787697e-03 6.990000000000000000e+02
2.871021986007690430e+00 -4.087263941764831543e-01 -2.794305793941020966e-03 6.950000000000000000e+02
2.868459939956665039e+00 -4.263349473476409912e-01 -2.794305793941020966e-03 6.730000000000000000e+02
2.865790128707885742e+00 -4.439274668693542480e-01 -2.794305793941020966e-03 7.140000000000000000e+02
2.868933677673339844e+00 -4.624574482440948486e-01 -2.954507945105433464e-03 6.820000000000000000e+02
2.868999719619750977e+00 -4.805474281311035156e-01 -3.034608904272317886e-03 6.830000000000000000e+02
2.863042593002319336e+00 -4.976288378238677979e-01 -2.954507945105433464e-03 6.980000000000000000e+02
2.859935283660888672e+00 -5.151867866516113281e-01 -2.954507945105433464e-03 6.990000000000000000e+02
2.859668493270874023e+00 -5.332748889923095703e-01 -3.034608904272317886e-03 7.150000000000000000e+02
2.858305692672729492e+00 -5.511898994445800781e-01 -3.088009776547551155e-03 6.230000000000000000e+02
2.852909088134765625e+00 -5.683273077011108398e-01 -3.034608904272317886e-03 6.270000000000000000e+02
2.842513799667358398e+00 -5.844129323959350586e-01 -2.847706433385610580e-03 6.240000000000000000e+02
2.842786073684692383e+00 -6.026722788810729980e-01 -2.954507945105433464e-03 7.220000000000000000e+02
2.840011358261108398e+00 -6.203172206878662109e-01 -2.981208264827728271e-03 6.540000000000000000e+02
2.852731943130493164e+00 -6.414586901664733887e-01 -3.435114398598670959e-03 7.250000000000000000e+02
2.854585886001586914e+00 -6.603020429611206055e-01 -3.595316549763083458e-03 7.050000000000000000e+02
2.837837696075439453e+00 -6.747994422912597656e-01 -3.248211927711963654e-03 6.180000000000000000e+02
2.828788280487060547e+00 -6.910135746002197266e-01 -3.114710096269845963e-03 5.120000000000000000e+02
2.834191322326660156e+00 -7.107888460159301758e-01 -3.381713759154081345e-03 4.640000000000000000e+02
2.807509899139404297e+00 -7.224373221397399902e-01 -2.767605241388082504e-03 1.580000000000000000e+02
2.790458679199218750e+00 -7.363353371620178223e-01 -2.420500619336962700e-03 1.120000000000000000e+02
3.561992883682250977e+00 -2.413182497024536133e+00 -4.025491699576377869e-02 6.100000000000000000e+01
3.694644451141357422e+00 -2.536256790161132812e+00 -4.503428190946578979e-02 3.110000000000000000e+02
3.592841386795043945e+00 -2.498948574066162109e+00 -4.223074391484260559e-02 1.180000000000000000e+02
3.528410911560058594e+00 -2.486399412155151367e+00 -4.062872007489204407e-02 3.500000000000000000e+01
3.551327943801879883e+00 -2.535299777984619141e+00 -4.188363999128341675e-02 3.000000000000000000e+01
3.472522258758544922e+00 -2.511352300643920898e+00 -3.980100899934768677e-02 1.700000000000000000e+01
3.455434560775756836e+00 -2.531430482864379883e+00 -3.974761068820953369e-02 2.100000000000000000e+01
3.530551671981811523e+00 -2.619895696640014648e+00 -4.276474937796592712e-02 8.600000000000000000e+01
3.497628450393676758e+00 -2.628897190093994141e+00 -4.220404475927352905e-02 7.700000000000000000e+01
3.429729938507080078e+00 -2.610952854156494141e+00 -4.046851769089698792e-02 1.220000000000000000e+02
3.433437108993530273e+00 -2.647206783294677734e+00 -4.113603010773658752e-02 7.700000000000000000e+01
3.595988273620605469e+00 -2.807872772216796875e+00 -4.719701036810874939e-02 3.500000000000000000e+01
3.539485216140747070e+00 -2.798883676528930664e+00 -4.586199298501014709e-02 1.700000000000000000e+01
3.485569953918457031e+00 -2.791182518005371094e+00 -4.460707679390907288e-02 2.600000000000000000e+01
3.405484199523925781e+00 -2.761520147323608398e+00 -4.244434460997581482e-02 2.000000000000000000e+01
2.896295785903930664e+00 -9.087119251489639282e-02 -1.129817496985197067e-02 1.680000000000000000e+02
2.864718914031982422e+00 -1.074844226241111755e-01 -1.037852093577384949e-02 2.800000000000000000e+02
2.843034744262695312e+00 -1.241479292511940002e-01 -9.755530394613742828e-03 4.210000000000000000e+02
2.903117418289184570e+00 -1.446131616830825806e-01 -1.156517118215560913e-02 5.520000000000000000e+02
2.881217479705810547e+00 -1.612542867660522461e-01 -1.094217970967292786e-02 6.380000000000000000e+02
2.879176139831542969e+00 -1.788682639598846436e-01 -1.091251336038112640e-02 5.670000000000000000e+02
2.866057395935058594e+00 -1.957160830497741699e-01 -1.055651903152465820e-02 5.500000000000000000e+02
2.858821630477905273e+00 -2.128539383411407471e-01 -1.037852093577384949e-02 5.840000000000000000e+02
2.875396013259887695e+00 -2.318341732025146484e-01 -1.091251336038112640e-02 6.370000000000000000e+02
2.879894256591796875e+00 -2.499905377626419067e-01 -1.109051145613193512e-02 5.940000000000000000e+02
2.883282423019409180e+00 -2.681184113025665283e-01 -1.123884227126836777e-02 6.060000000000000000e+02
2.889540672302246094e+00 -2.865927219390869141e-01 -1.147617213428020477e-02 5.850000000000000000e+02
2.888721942901611328e+00 -3.044218122959136963e-01 -1.150583848357200623e-02 6.310000000000000000e+02
2.881832599639892578e+00 -3.215875327587127686e-01 -1.135750766843557358e-02 6.210000000000000000e+02
2.863921642303466797e+00 -3.373956382274627686e-01 -1.088284701108932495e-02 5.870000000000000000e+02
2.855845689773559570e+00 -3.542248010635375977e-01 -1.070484984666109085e-02 5.500000000000000000e+02
2.860556840896606445e+00 -3.726439177989959717e-01 -1.091251336038112640e-02 6.200000000000000000e+02
2.850293159484863281e+00 -3.891087174415588379e-01 -1.067518349736928940e-02 5.880000000000000000e+02
2.855768442153930664e+00 -4.077192842960357666e-01 -1.091251336038112640e-02 5.750000000000000000e+02
2.866065740585327148e+00 -4.271475374698638916e-01 -1.129817496985197067e-02 6.070000000000000000e+02
2.869317293167114258e+00 -4.456447362899780273e-01 -1.147617213428020477e-02 6.040000000000000000e+02
2.873436212539672852e+00 -4.643572270870208740e-01 -1.168383564800024033e-02 5.490000000000000000e+02
2.870532989501953125e+00 -4.819795489311218262e-01 -1.168383564800024033e-02 5.860000000000000000e+02
2.865551948547363281e+00 -4.992409646511077881e-01 -1.162450388073921204e-02 5.810000000000000000e+02
2.871288061141967773e+00 -5.184111595153808594e-01 -1.189150009304285049e-02 5.870000000000000000e+02
2.873948574066162109e+00 -5.371200442314147949e-01 -1.206949725747108459e-02 5.760000000000000000e+02
2.865691423416137695e+00 -5.537967085838317871e-01 -1.192116551101207733e-02 5.890000000000000000e+02
2.856358051300048828e+00 -5.701968073844909668e-01 -1.174316834658384323e-02 5.590000000000000000e+02
2.846931457519531250e+00 -5.865032076835632324e-01 -1.156517118215560913e-02 5.350000000000000000e+02
2.839367866516113281e+00 -6.031305193901062012e-01 -1.144650578498840332e-02 5.590000000000000000e+02
2.829754829406738281e+00 -6.192601323127746582e-01 -1.126850862056016922e-02 5.550000000000000000e+02
2.837603807449340820e+00 -6.392455697059631348e-01 -1.162450388073921204e-02 5.490000000000000000e+02
2.844339847564697266e+00 -6.591250896453857422e-01 -1.195083186030387878e-02 5.980000000000000000e+02
2.838297128677368164e+00 -6.761022806167602539e-01 -1.189150009304285049e-02 5.400000000000000000e+02
2.796227931976318359e+00 -6.842457652091979980e-01 -1.073451619595289230e-02 3.620000000000000000e+02
2.795854806900024414e+00 -7.023636698722839355e-01 -1.085318066179752350e-02 2.940000000000000000e+02
2.912488460540771484e+00 -7.506698369979858398e-01 -1.456146128475666046e-02 3.900000000000000000e+01
3.606323957443237305e+00 -2.445109367370605469e+00 -5.461088940501213074e-02 2.060000000000000000e+02
3.633274078369140625e+00 -2.496052503585815430e+00 -5.612387135624885559e-02 2.600000000000000000e+01
3.562099695205688477e+00 -2.479474067687988281e+00 -5.410656332969665527e-02 1.200000000000000000e+01
3.620342493057250977e+00 -2.553121805191040039e+00 -5.677652731537818909e-02 2.000000000000000000e+01
3.494802236557006836e+00 -2.529385805130004883e+00 -5.333524197340011597e-02 1.110000000000000000e+02
3.481635093688964844e+00 -2.552554607391357422e+00 -5.342424288392066956e-02 1.460000000000000000e+02
3.527703523635864258e+00 -2.619750022888183594e+00 -5.570854246616363525e-02 5.400000000000000000e+01
3.564288616180419922e+00 -2.680996417999267578e+00 -5.766651406884193420e-02 1.900000000000000000e+01
3.542205095291137695e+00 -2.698576450347900391e+00 -5.745885148644447327e-02 2.300000000000000000e+01
2.869911909103393555e+00 -1.203700006008148193e-01 -2.003676816821098328e-02 1.250000000000000000e+02
2.851150035858154297e+00 -1.371099352836608887e-01 -1.944311521947383881e-02 2.970000000000000000e+02
2.878198623657226562e+00 -1.561222225427627563e-01 -2.036657556891441345e-02 3.230000000000000000e+02
2.864217281341552734e+00 -1.729940176010131836e-01 -1.993782632052898407e-02 4.250000000000000000e+02
2.874071598052978516e+00 -1.912972927093505859e-01 -2.030061371624469757e-02 3.880000000000000000e+02
2.865865945816040039e+00 -2.084200084209442139e-01 -2.006975002586841583e-02 4.170000000000000000e+02
2.864533185958862305e+00 -2.260007113218307495e-01 -2.006975002586841583e-02 4.470000000000000000e+02
2.866080045700073242e+00 -2.438275814056396484e-01 -2.016869187355041504e-02 4.290000000000000000e+02
2.865525245666503906e+00 -2.614999115467071533e-01 -2.020167186856269836e-02 4.210000000000000000e+02
2.859887838363647461e+00 -2.786891162395477295e-01 -2.006975002586841583e-02 4.190000000000000000e+02
2.849177122116088867e+00 -2.953029274940490723e-01 -1.977292262017726898e-02 4.170000000000000000e+02
2.840357303619384766e+00 -3.120144605636596680e-01 -1.954205706715583801e-02 4.290000000000000000e+02
2.841367483139038086e+00 -3.297828733921051025e-01 -1.964099891483783722e-02 4.370000000000000000e+02
2.849210977554321289e+00 -3.484258651733398438e-01 -1.997080631554126740e-02 4.580000000000000000e+02
2.849002122879028320e+00 -3.661568760871887207e-01 -2.003676816821098328e-02 4.130000000000000000e+02
2.849673271179199219e+00 -3.840321004390716553e-01 -2.013571001589298248e-02 4.060000000000000000e+02
2.850232124328613281e+00 -4.019293189048767090e-01 -2.023465372622013092e-02 4.270000000000000000e+02
2.850678443908691406e+00 -4.198478460311889648e-01 -2.033359557390213013e-02 4.290000000000000000e+02
2.852988004684448242e+00 -4.380907118320465088e-01 -2.049849927425384521e-02 4.100000000000000000e+02
2.856167554855346680e+00 -4.565355777740478516e-01 -2.069638296961784363e-02 4.400000000000000000e+02
2.857256174087524414e+00 -4.747079908847808838e-01 -2.082830667495727539e-02 4.300000000000000000e+02
2.854289770126342773e+00 -4.922308623790740967e-01 -2.082830667495727539e-02 3.940000000000000000e+02
2.845312833786010742e+00 -5.086787939071655273e-01 -2.063042111694812775e-02 4.240000000000000000e+02
2.839189767837524414e+00 -5.255814790725708008e-01 -2.053147926926612854e-02 3.920000000000000000e+02
2.836893081665039062e+00 -5.431806445121765137e-01 -2.056446112692356110e-02 4.420000000000000000e+02
2.832526206970214844e+00 -5.603831410408020020e-01 -2.053147926926612854e-02 4.130000000000000000e+02
2.830992937088012695e+00 -5.781529545783996582e-01 -2.059744112193584442e-02 3.920000000000000000e+02
2.834238052368164062e+00 -5.969557762145996094e-01 -2.082830667495727539e-02 4.080000000000000000e+02
2.834428548812866211e+00 -6.151837110519409180e-01 -2.096022851765155792e-02 4.230000000000000000e+02
2.829625129699707031e+00 -6.323457360267639160e-01 -2.092724852263927460e-02 4.020000000000000000e+02
2.821795701980590820e+00 -6.487995982170104980e-01 -2.079532481729984283e-02 3.740000000000000000e+02
2.814843893051147461e+00 -6.654112935066223145e-01 -2.069638296961784363e-02 3.590000000000000000e+02
2.820419788360595703e+00 -6.850309371948242188e-01 -2.102619037032127380e-02 4.510000000000000000e+02
2.798708677291870117e+00 -6.979675889015197754e-01 -2.043253742158412933e-02 3.640000000000000000e+02
2.829228878021240234e+00 -7.240534424781799316e-01 -2.161984331905841827e-02 1.790000000000000000e+02
2.827632904052734375e+00 -7.421613335609436035e-01 -2.171878702938556671e-02 1.520000000000000000e+02
3.584193706512451172e+00 -2.421725034713745117e+00 -6.799076497554779053e-02 1.540000000000000000e+02
3.597304344177246094e+00 -2.462871789932250977e+00 -6.911211460828781128e-02 1.700000000000000000e+01
3.495904207229614258e+00 -2.425073146820068359e+00 -6.564912945032119751e-02 2.900000000000000000e+01
3.545551538467407227e+00 -2.491886377334594727e+00 -6.825461238622665405e-02 1.310000000000000000e+02
3.602649211883544922e+00 -2.565196514129638672e+00 -7.118989527225494385e-02 7.500000000000000000e+01
3.454726934432983398e+00 -2.491934299468994141e+00 -6.581403315067291260e-02 5.600000000000000000e+01
3.489400386810302734e+00 -2.549649238586425781e+00 -6.785884499549865723e-02 1.120000000000000000e+02
3.456821441650390625e+00 -2.558523416519165039e+00 -6.716624647378921509e-02 2.170000000000000000e+02
3.495431661605834961e+00 -2.620458841323852539e+00 -6.940893828868865967e-02 1.390000000000000000e+02
3.808411121368408203e+00 -2.928840398788452148e+00 -8.378854393959045410e-02 2.500000000000000000e+01
3.992795705795288086e+00 -3.189341783523559570e+00 -9.388064593076705933e-02 2.170000000000000000e+02
3.741894483566284180e+00 -3.142377138137817383e+00 -8.649296313524246216e-02 2.100000000000000000e+01
3.719497442245483398e+00 -3.162687778472900391e+00 -8.636103570461273193e-02 2.300000000000000000e+01
3.502350568771362305e+00 -3.015235662460327148e+00 -7.775306701660156250e-02 2.000000000000000000e+01
3.364001989364624023e+00 -2.932237625122070312e+00 -7.250912487506866455e-02 1.400000000000000000e+01
3.271128416061401367e+00 -2.922682762145996094e+00 -7.000259310007095337e-02 1.100000000000000000e+01
2.855272054672241211e+00 -1.043451055884361267e-01 -2.748276293277740479e-02 1.570000000000000000e+02
2.856575012207031250e+00 -1.219481229782104492e-01 -2.755430527031421661e-02 2.590000000000000000e+02
2.862760066986083984e+00 -1.398150920867919922e-01 -2.780470624566078186e-02 4.110000000000000000e+02
2.873822450637817383e+00 -1.580372005701065063e-01 -2.823396585881710052e-02 5.070000000000000000e+02
2.877786159515380859e+00 -1.759729385375976562e-01 -2.841282449662685394e-02 5.360000000000000000e+02
2.872663736343383789e+00 -1.933587044477462769e-01 -2.826973795890808105e-02 5.920000000000000000e+02
2.869430065155029297e+00 -2.108348160982131958e-01 -2.819819375872612000e-02 6.150000000000000000e+02
2.861109018325805664e+00 -2.278815209865570068e-01 -2.794779278337955475e-02 5.970000000000000000e+02
2.871605157852172852e+00 -2.464588284492492676e-01 -2.837705239653587341e-02 6.050000000000000000e+02
2.872029066085815430e+00 -2.642572820186614990e-01 -2.844859659671783447e-02 6.300000000000000000e+02
2.869359016418457031e+00 -2.817770242691040039e-01 -2.841282449662685394e-02 6.050000000000000000e+02
2.847697019577026367e+00 -2.973012328147888184e-01 -2.769739180803298950e-02 5.810000000000000000e+02
2.839859485626220703e+00 -3.141092061996459961e-01 -2.748276293277740479e-02 5.920000000000000000e+02
2.846812009811401367e+00 -3.325725197792053223e-01 -2.780470624566078186e-02 5.780000000000000000e+02
2.863563537597656250e+00 -3.523539602756500244e-01 -2.848436683416366577e-02 6.200000000000000000e+02
2.872249603271484375e+00 -3.713279068470001221e-01 -2.887785434722900391e-02 6.260000000000000000e+02
2.865956068038940430e+00 -3.884076178073883057e-01 -2.873476780951023102e-02 6.190000000000000000e+02
2.858571529388427734e+00 -4.052837789058685303e-01 -2.855591103434562683e-02 6.050000000000000000e+02
2.858996629714965820e+00 -4.232552349567413330e-01 -2.866322547197341919e-02 6.080000000000000000e+02
2.865234851837158203e+00 -4.421620070934295654e-01 -2.898517064750194550e-02 5.990000000000000000e+02
2.865427970886230469e+00 -4.602100253105163574e-01 -2.909248508512973785e-02 5.860000000000000000e+02
2.866492986679077148e+00 -4.784416258335113525e-01 -2.923557162284851074e-02 6.210000000000000000e+02
2.862518787384033203e+00 -4.958504736423492432e-01 -2.919979952275753021e-02 6.110000000000000000e+02
2.847618818283081055e+00 -5.112852454185485840e-01 -2.877053990960121155e-02 5.570000000000000000e+02
2.844428062438964844e+00 -5.287482738494873047e-01 -2.877053990960121155e-02 5.800000000000000000e+02
2.845055818557739258e+00 -5.469462871551513672e-01 -2.891362644731998444e-02 6.090000000000000000e+02
2.843606472015380859e+00 -5.647823810577392578e-01 -2.898517064750194550e-02 5.860000000000000000e+02
2.847919464111328125e+00 -5.838258266448974609e-01 -2.927134372293949127e-02 5.610000000000000000e+02
2.842328071594238281e+00 -6.008758544921875000e-01 -2.919979952275753021e-02 5.860000000000000000e+02
2.838587760925292969e+00 -6.183047294616699219e-01 -2.919979952275753021e-02 5.780000000000000000e+02
2.840591192245483398e+00 -6.370227336883544922e-01 -2.941443026065826416e-02 6.010000000000000000e+02
2.828838825225830078e+00 -6.526425480842590332e-01 -2.912825718522071838e-02 5.400000000000000000e+02
2.826725721359252930e+00 -6.704490780830383301e-01 -2.919979952275753021e-02 5.490000000000000000e+02
2.820616960525512695e+00 -6.873076558113098145e-01 -2.912825718522071838e-02 4.500000000000000000e+02
2.818285465240478516e+00 -7.050868868827819824e-01 -2.919979952275753021e-02 4.480000000000000000e+02
2.816810131072998047e+00 -7.231119275093078613e-01 -2.930711396038532257e-02 2.010000000000000000e+02
2.806521654129028320e+00 -7.388550639152526855e-01 -2.909248508512973785e-02 1.610000000000000000e+02
3.583795309066772461e+00 -2.425157070159912109e+00 -8.010280877351760864e-02 1.650000000000000000e+02
3.448515415191650391e+00 -2.364584922790527344e+00 -7.488015294075012207e-02 1.700000000000000000e+01
3.538992404937744141e+00 -2.458689212799072266e+00 -7.945892214775085449e-02 1.850000000000000000e+02
3.518317699432373047e+00 -2.508895874023437500e+00 -7.988817989826202393e-02 2.440000000000000000e+02
3.485845804214477539e+00 -2.518146753311157227e+00 -7.913697510957717896e-02 2.180000000000000000e+02
3.451780319213867188e+00 -2.525913476943969727e+00 -7.831422984600067139e-02 1.850000000000000000e+02
3.447456121444702148e+00 -2.555377483367919922e+00 -7.881502807140350342e-02 1.860000000000000000e+02
3.487653255462646484e+00 -2.618486166000366211e+00 -8.131904155015945435e-02 1.160000000000000000e+02
3.366582870483398438e+00 -2.592788934707641602e+00 -7.731262594461441040e-02 2.600000000000000000e+01
3.999560117721557617e+00 -3.199314594268798828e+00 -1.085412427783012390e-01 2.350000000000000000e+02
3.636090278625488281e+00 -3.057861566543579102e+00 -9.526997804641723633e-02 2.100000000000000000e+01
2.849497318267822266e+00 -8.777268975973129272e-02 -3.618163615465164185e-02 1.150000000000000000e+02
2.853897809982299805e+00 -1.054393947124481201e-01 -3.637619316577911377e-02 2.490000000000000000e+02
2.861183643341064453e+00 -1.232922822237014771e-01 -3.668747842311859131e-02 3.890000000000000000e+02
2.867359638214111328e+00 -1.411894410848617554e-01 -3.695985674858093262e-02 6.260000000000000000e+02
2.867437124252319336e+00 -1.588357836008071899e-01 -3.699876740574836731e-02 6.320000000000000000e+02
2.893337249755859375e+00 -1.780829280614852905e-01 -3.804936632513999939e-02 7.420000000000000000e+02
2.892189979553222656e+00 -1.958327591419219971e-01 -3.804936632513999939e-02 7.670000000000000000e+02
2.878975629806518555e+00 -2.126924693584442139e-01 -3.758243471384048462e-02 7.150000000000000000e+02
2.871639966964721680e+00 -2.298754602670669556e-01 -3.734896704554557800e-02 7.020000000000000000e+02
2.870175361633300781e+00 -2.474911808967590332e-01 -3.734896704554557800e-02 7.040000000000000000e+02
2.868602752685546875e+00 -2.650975883007049561e-01 -3.734896704554557800e-02 7.520000000000000000e+02
2.870899915695190430e+00 -2.830860018730163574e-01 -3.750461339950561523e-02 6.990000000000000000e+02
2.875071763992309570e+00 -3.013207614421844482e-01 -3.773807734251022339e-02 7.050000000000000000e+02
2.881113767623901367e+00 -3.198377490043640137e-01 -3.804936632513999939e-02 7.790000000000000000e+02
2.877112150192260742e+00 -3.372773528099060059e-01 -3.797154501080513000e-02 7.440000000000000000e+02
2.873005151748657227e+00 -3.546798825263977051e-01 -3.789371997117996216e-02 7.580000000000000000e+02
2.874738693237304688e+00 -3.728154599666595459e-01 -3.804936632513999939e-02 7.590000000000000000e+02
2.877347707748413086e+00 -3.911201655864715576e-01 -3.824391961097717285e-02 7.210000000000000000e+02
2.874893665313720703e+00 -4.087678790092468262e-01 -3.824391961097717285e-02 7.530000000000000000e+02
2.870354413986206055e+00 -4.261068403720855713e-01 -3.816609829664230347e-02 7.200000000000000000e+02
2.864723443984985352e+00 -4.432527720928192139e-01 -3.804936632513999939e-02 7.300000000000000000e+02
2.863922834396362305e+00 -4.611396193504333496e-01 -3.812718763947486877e-02 8.030000000000000000e+02
2.866952657699584961e+00 -4.796926975250244141e-01 -3.836065530776977539e-02 7.650000000000000000e+02
2.868878126144409180e+00 -4.981293976306915283e-01 -3.855520859360694885e-02 6.960000000000000000e+02
2.871668338775634766e+00 -5.167846679687500000e-01 -3.878867626190185547e-02 7.290000000000000000e+02
2.864513874053955078e+00 -5.336633324623107910e-01 -3.863302990794181824e-02 7.100000000000000000e+02
2.857260704040527344e+00 -5.504736900329589844e-01 -3.847738727927207947e-02 6.900000000000000000e+02
2.854809284210205078e+00 -5.681901574134826660e-01 -3.851629793643951416e-02 7.540000000000000000e+02
2.853226900100708008e+00 -5.860982537269592285e-01 -3.859411925077438354e-02 7.510000000000000000e+02
2.853487014770507812e+00 -6.044223308563232422e-01 -3.874976560473442078e-02 7.780000000000000000e+02
2.855582475662231445e+00 -6.231976151466369629e-01 -3.898322954773902893e-02 7.690000000000000000e+02
2.856579542160034180e+00 -6.418023705482482910e-01 -3.917778655886650085e-02 7.370000000000000000e+02
2.851614236831665039e+00 -6.590929627418518066e-01 -3.913887590169906616e-02 6.910000000000000000e+02
2.848488569259643555e+00 -6.768086552619934082e-01 -3.917778655886650085e-02 6.740000000000000000e+02
2.821954727172851562e+00 -6.888253092765808105e-01 -3.828283026814460754e-02 5.040000000000000000e+02
2.817675113677978516e+00 -7.061275243759155273e-01 -3.828283026814460754e-02 4.760000000000000000e+02
2.793933868408203125e+00 -7.184273004531860352e-01 -3.750461339950561523e-02 1.940000000000000000e+02
2.782709360122680664e+00 -7.337739467620849609e-01 -3.723223507404327393e-02 1.490000000000000000e+02
3.547471523284912109e+00 -2.370826721191406250e+00 -9.131854772567749023e-02 1.070000000000000000e+02
3.565953254699707031e+00 -2.414960384368896484e+00 -9.287498891353607178e-02 1.630000000000000000e+02
3.533765554428100586e+00 -2.424922943115234375e+00 -9.205785393714904785e-02 1.060000000000000000e+02
3.515538215637207031e+00 -2.444278478622436523e+00 -9.190221130847930908e-02 2.530000000000000000e+02
3.496389389038085938e+00 -2.462926149368286133e+00 -9.170765429735183716e-02 2.190000000000000000e+02
3.482838153839111328e+00 -2.485494136810302734e+00 -9.178548306226730347e-02 2.940000000000000000e+02
3.461043357849121094e+00 -2.502134561538696289e+00 -9.147419035434722900e-02 2.550000000000000000e+02
3.433532476425170898e+00 -2.514468669891357422e+00 -9.089052677154541016e-02 1.920000000000000000e+02
3.455144882202148438e+00 -2.596027612686157227e+00 -9.345865249633789062e-02 1.340000000000000000e+02
3.623637437820434570e+00 -2.757561206817626953e+00 -1.024860069155693054e-01 2.700000000000000000e+01
3.795811414718627930e+00 -2.925524950027465820e+00 -1.117857396602630615e-01 1.900000000000000000e+01
3.994855403900146484e+00 -3.197837114334106445e+00 -1.244318261742591858e-01 2.180000000000000000e+02
3.896755695343017578e+00 -3.158739328384399414e+00 -1.205018088221549988e-01 3.900000000000000000e+01
2.849118947982788086e+00 -8.939915895462036133e-02 -4.410383850336074829e-02 1.430000000000000000e+02
2.844522953033447266e+00 -1.067301928997039795e-01 -4.393703490495681763e-02 2.800000000000000000e+02
2.853796482086181641e+00 -1.246159747242927551e-01 -4.435404762625694275e-02 4.440000000000000000e+02
2.865950822830200195e+00 -1.427681744098663330e-01 -4.489616304636001587e-02 5.510000000000000000e+02
2.864023208618164062e+00 -1.602949649095535278e-01 -4.485446214675903320e-02 5.750000000000000000e+02
2.864980220794677734e+00 -1.779888272285461426e-01 -4.493786394596099854e-02 6.130000000000000000e+02
2.866824626922607422e+00 -1.957683563232421875e-01 -4.506297037005424500e-02 5.650000000000000000e+02
2.875533342361450195e+00 -2.140952795743942261e-01 -4.547998309135437012e-02 6.060000000000000000e+02
2.878149271011352539e+00 -2.320556938648223877e-01 -4.564678668975830078e-02 5.560000000000000000e+02
2.889611482620239258e+00 -2.508323490619659424e-01 -4.618890210986137390e-02 5.820000000000000000e+02
2.880059003829956055e+00 -2.678192257881164551e-01 -4.585529491305351257e-02 6.270000000000000000e+02
2.869413137435913086e+00 -2.845999300479888916e-01 -4.547998309135437012e-02 5.850000000000000000e+02
2.860657215118408203e+00 -3.014691770076751709e-01 -4.518807306885719299e-02 5.650000000000000000e+02
2.863718748092651367e+00 -3.195693492889404297e-01 -4.539657756686210632e-02 5.820000000000000000e+02
2.874603748321533203e+00 -3.386522233486175537e-01 -4.593869671225547791e-02 5.990000000000000000e+02
2.881395578384399414e+00 -3.573893904685974121e-01 -4.631400853395462036e-02 5.840000000000000000e+02
2.853388071060180664e+00 -3.717113137245178223e-01 -4.522977396845817566e-02 5.780000000000000000e+02
2.845113754272460938e+00 -3.884025514125823975e-01 -4.497956484556198120e-02 5.990000000000000000e+02
2.841687917709350586e+00 -4.057115018367767334e-01 -4.493786394596099854e-02 5.730000000000000000e+02
2.849027395248413086e+00 -4.246112108230590820e-01 -4.535487666726112366e-02 5.280000000000000000e+02
2.848343133926391602e+00 -4.423908591270446777e-01 -4.543828219175338745e-02 5.510000000000000000e+02
2.851493120193481445e+00 -4.608149826526641846e-01 -4.568848758935928345e-02 5.690000000000000000e+02
2.858465671539306641e+00 -4.799554944038391113e-01 -4.610550031065940857e-02 5.460000000000000000e+02
2.845623493194580078e+00 -4.957725107669830322e-01 -4.568848758935928345e-02 5.670000000000000000e+02
2.846461057662963867e+00 -5.139330029487609863e-01 -4.585529491305351257e-02 5.730000000000000000e+02
2.852093458175659180e+00 -5.330393314361572266e-01 -4.623060300946235657e-02 5.970000000000000000e+02
2.851711988449096680e+00 -5.510976314544677734e-01 -4.635570943355560303e-02 5.770000000000000000e+02
2.851216316223144531e+00 -5.691713094711303711e-01 -4.648081213235855103e-02 6.000000000000000000e+02
2.830055236816406250e+00 -5.830295681953430176e-01 -4.573018848896026611e-02 4.850000000000000000e+02
2.826424598693847656e+00 -6.003835201263427734e-01 -4.573018848896026611e-02 5.700000000000000000e+02
2.822687625885009766e+00 -6.177148222923278809e-01 -4.573018848896026611e-02 5.630000000000000000e+02
2.842237949371337891e+00 -6.402887105941772461e-01 -4.673102125525474548e-02 5.230000000000000000e+02
2.841175794601440430e+00 -6.583924889564514160e-01 -4.685612395405769348e-02 5.520000000000000000e+02
2.817643165588378906e+00 -6.711860895156860352e-01 -4.602209851145744324e-02 5.320000000000000000e+02
2.814442157745361328e+00 -6.886994838714599609e-01 -4.606379941105842590e-02 3.640000000000000000e+02
