# .PCD v.7 - Point Cloud Data file format
VERSION .7
FIELDS x y z intensity
SIZE 4 4 4 4
TYPE F F F F
COUNT 1 1 1 1
WIDTH 469
HEIGHT 1
VIEWPOINT 0 0 0 1 0 0 0
POINTS 469
DATA ascii
3.327594757080078125e+00 -3.887670636177062988e-01 -1.677916795015335083e-01 7.950000000000000000e+02
3.324156761169433594e+00 -4.090556204319000244e-01 -1.677193045616149902e-01 8.070000000000000000e+02
3.305757999420166016e+00 -4.273976087570190430e-01 -1.665614247322082520e-01 7.690000000000000000e+02
3.298131704330444336e+00 -4.470033049583435059e-01 -1.661995798349380493e-01 7.220000000000000000e+02
3.317051649093627930e+00 -4.703132212162017822e-01 -1.677916795015335083e-01 4.900000000000000000e+02
3.296344280242919922e+00 -4.880272746086120605e-01 -1.664890497922897339e-01 1.990000000000000000e+02
3.231188774108886719e+00 -4.986573159694671631e-01 -1.619298756122589111e-01 6.200000000000000000e+01
3.995420217514038086e+00 -2.668131351470947266e+00 -2.733039855957031250e-01 8.100000000000000000e+02
3.969061613082885742e+00 -2.685888528823852539e+00 -2.724355757236480713e-01 7.870000000000000000e+02
3.947571277618408203e+00 -2.706807374954223633e+00 -2.720013856887817383e-01 7.330000000000000000e+02
3.954641580581665039e+00 -2.747482061386108398e+00 -2.741000354290008545e-01 2.970000000000000000e+02
3.911610603332519531e+00 -2.753324031829833984e+00 -2.717842757701873779e-01 1.210000000000000000e+02
3.893018722534179688e+00 -2.776115179061889648e+00 -2.716395258903503418e-01 1.580000000000000000e+02
3.904207944869995117e+00 -2.820392608642578125e+00 -2.741724252700805664e-01 1.140000000000000000e+02
3.925462245941162109e+00 -2.872568607330322266e+00 -2.776460647583007812e-01 1.110000000000000000e+02
3.874912023544311523e+00 -2.872248649597167969e+00 -2.746789753437042236e-01 9.100000000000000000e+01
3.865988492965698242e+00 -2.902558088302612305e+00 -2.754750251770019531e-01 1.090000000000000000e+02
3.809999465942382812e+00 -2.897244930267333984e+00 -2.720013856887817383e-01 4.700000000000000000e+01
3.321689605712890625e+00 1.622554808855056763e-01 -1.747262030839920044e-01 1.280000000000000000e+02
3.331589221954345703e+00 1.422542184591293335e-01 -1.754010021686553955e-01 1.390000000000000000e+02
3.334392309188842773e+00 1.218822523951530457e-01 -1.755509674549102783e-01 6.190000000000000000e+02
3.336074113845825195e+00 1.014508679509162903e-01 -1.756259351968765259e-01 8.000000000000000000e+02
3.343612194061279297e+00 8.114890009164810181e-02 -1.761507987976074219e-01 9.370000000000000000e+02
3.349032163619995117e+00 6.072198599576950073e-02 -1.765256822109222412e-01 9.380000000000000000e+02
3.351336002349853516e+00 4.019558429718017578e-02 -1.766756474971771240e-01 9.000000000000000000e+02
3.354511022567749023e+00 1.964908838272094727e-02 -1.769005805253982544e-01 9.350000000000000000e+02
3.357559919357299805e+00 -9.348599123768508434e-04 -1.771255135536193848e-01 9.880000000000000000e+02
3.362476825714111328e+00 -2.156817726790904999e-02 -1.775004118680953979e-01 9.940000000000000000e+02
3.367266654968261719e+00 -4.226186871528625488e-02 -1.778753101825714111e-01 1.007000000000000000e+03
3.355976819992065430e+00 -6.271781772375106812e-02 -1.770505309104919434e-01 9.630000000000000000e+02
3.357522726058959961e+00 -8.335792273283004761e-02 -1.772004961967468262e-01 1.011000000000000000e+03
3.357944726943969727e+00 -1.039885431528091431e-01 -1.772754788398742676e-01 1.031000000000000000e+03
3.351264476776123047e+00 -1.243689581751823425e-01 -1.768255978822708130e-01 9.850000000000000000e+02
3.352430820465087891e+00 -1.450156718492507935e-01 -1.769755631685256958e-01 1.000000000000000000e+03
3.344506025314331055e+00 -1.652389764785766602e-01 -1.764507144689559937e-01 9.660000000000000000e+02
3.348407506942749023e+00 -1.860337108373641968e-01 -1.768255978822708130e-01 1.011000000000000000e+03
3.350188732147216797e+00 -2.067597806453704834e-01 -1.770505309104919434e-01 9.960000000000000000e+02
3.357811212539672852e+00 -2.279195934534072876e-01 -1.777253448963165283e-01 9.470000000000000000e+02
3.358338356018066406e+00 -2.486656159162521362e-01 -1.778753101825714111e-01 1.029000000000000000e+03
3.339851379394531250e+00 -2.679126560688018799e-01 -1.766006648540496826e-01 9.290000000000000000e+02
3.330196857452392578e+00 -2.877142727375030518e-01 -1.760008335113525391e-01 9.590000000000000000e+02
3.326382875442504883e+00 -3.079588115215301514e-01 -1.758508831262588501e-01 8.740000000000000000e+02
3.327407598495483398e+00 -3.286572098731994629e-01 -1.760758161544799805e-01 9.480000000000000000e+02
3.325328350067138672e+00 -3.490676283836364746e-01 -1.760758161544799805e-01 9.000000000000000000e+02
3.325106143951416016e+00 -3.696851730346679688e-01 -1.762257665395736694e-01 9.020000000000000000e+02
3.327727317810058594e+00 -3.906617760658264160e-01 -1.766006648540496826e-01 9.140000000000000000e+02
3.317350149154663086e+00 -4.100946187973022461e-01 -1.760008335113525391e-01 8.050000000000000000e+02
3.303893804550170898e+00 -4.290297925472259521e-01 -1.751760691404342651e-01 8.220000000000000000e+02
3.290330171585083008e+00 -4.478152990341186523e-01 -1.743513047695159912e-01 7.390000000000000000e+02
3.310226917266845703e+00 -4.712271988391876221e-01 -1.760758161544799805e-01 4.470000000000000000e+02
3.297409772872924805e+00 -4.900640547275543213e-01 -1.753260195255279541e-01 1.790000000000000000e+02
3.661910057067871094e+00 -5.672044754028320312e-01 -2.032930850982666016e-01 3.300000000000000000e+01
3.968037605285644531e+00 -2.582983255386352539e+00 -2.806711494922637939e-01 4.640000000000000000e+02
3.955443620681762695e+00 -2.609478473663330078e+00 -2.809710502624511719e-01 5.520000000000000000e+02
3.954279899597167969e+00 -2.643675088882446289e+00 -2.823206782341003418e-01 4.580000000000000000e+02
3.938809633255004883e+00 -2.668447494506835938e+00 -2.823956608772277832e-01 4.240000000000000000e+02
3.934694290161132812e+00 -2.701030254364013672e+00 -2.835203409194946289e-01 3.200000000000000000e+02
3.843548774719238281e+00 -2.673310518264770508e+00 -2.766972780227661133e-01 2.000000000000000000e+02
3.888209819793701172e+00 -2.739921808242797852e+00 -2.823206782341003418e-01 1.470000000000000000e+02
3.878629207611083984e+00 -2.768942117691040039e+00 -2.829954922199249268e-01 1.620000000000000000e+02
3.826820611953735352e+00 -2.767562389373779297e+00 -2.797713875770568848e-01 1.560000000000000000e+02
3.835509300231933594e+00 -2.809848308563232422e+00 -2.821707129478454590e-01 1.420000000000000000e+02
3.822200059890747070e+00 -2.836300611495971680e+00 -2.825455963611602783e-01 1.730000000000000000e+02
3.836611032485961914e+00 -2.883664131164550781e+00 -2.855447530746459961e-01 1.300000000000000000e+02
3.808529853820800781e+00 -2.899298906326293945e+00 -2.845700383186340332e-01 1.030000000000000000e+02
3.333834409713745117e+00 1.627290844917297363e-01 -1.861450076103210449e-01 1.590000000000000000e+02
3.330785989761352539e+00 1.420994102954864502e-01 -1.858325600624084473e-01 1.690000000000000000e+02
3.327610015869140625e+00 1.215132921934127808e-01 -1.855201125144958496e-01 6.690000000000000000e+02
3.331282615661621094e+00 1.011844277381896973e-01 -1.857544481754302979e-01 7.860000000000000000e+02
3.343800544738769531e+00 8.103379607200622559e-02 -1.866917759180068970e-01 8.290000000000000000e+02
3.344234704971313477e+00 6.051509827375411987e-02 -1.866917759180068970e-01 8.100000000000000000e+02
3.340555667877197266e+00 3.994583711028099060e-02 -1.863793283700942993e-01 7.820000000000000000e+02
3.341734647750854492e+00 1.945377513766288757e-02 -1.864574402570724487e-01 8.090000000000000000e+02
3.344782114028930664e+00 -1.051579369232058525e-03 -1.866917759180068970e-01 8.240000000000000000e+02
3.333746433258056641e+00 -2.150567248463630676e-02 -1.858325600624084473e-01 8.210000000000000000e+02
3.325576782226562500e+00 -4.186157509684562683e-02 -1.852076649665832520e-01 7.970000000000000000e+02
3.337218523025512695e+00 -6.248830631375312805e-02 -1.861450076103210449e-01 8.500000000000000000e+02
3.329795837402343750e+00 -8.279151469469070435e-02 -1.855982244014739990e-01 8.130000000000000000e+02
3.328228712081909180e+00 -1.031904518604278564e-01 -1.855201125144958496e-01 8.560000000000000000e+02
3.328529119491577148e+00 -1.236469969153404236e-01 -1.855982244014739990e-01 8.490000000000000000e+02
3.323723793029785156e+00 -1.438962519168853760e-01 -1.852857768535614014e-01 8.510000000000000000e+02
3.324769735336303711e+00 -1.643856912851333618e-01 -1.854420006275177002e-01 8.290000000000000000e+02
3.338629722595214844e+00 -1.856108456850051880e-01 -1.866136640310287476e-01 7.760000000000000000e+02
3.333447694778442383e+00 -2.058476209640502930e-01 -1.863012164831161499e-01 7.840000000000000000e+02
3.327148675918579102e+00 -2.259603887796401978e-01 -1.859106719493865967e-01 7.290000000000000000e+02
3.325699567794799805e+00 -2.463711351156234741e-01 -1.859106719493865967e-01 7.800000000000000000e+02
3.323131322860717773e+00 -2.666929960250854492e-01 -1.858325600624084473e-01 7.390000000000000000e+02
3.322425842285156250e+00 -2.871640324592590332e-01 -1.859106719493865967e-01 7.190000000000000000e+02
3.320601224899291992e+00 -3.075446486473083496e-01 -1.859106719493865967e-01 7.550000000000000000e+02
3.323612213134765625e+00 -3.284030854701995850e-01 -1.863012164831161499e-01 7.520000000000000000e+02
3.326492309570312500e+00 -3.493100404739379883e-01 -1.866917759180068970e-01 7.300000000000000000e+02
3.326267957687377930e+00 -3.699345290660858154e-01 -1.868479996919631958e-01 6.750000000000000000e+02
3.323935508728027344e+00 -3.903371691703796387e-01 -1.868479996919631958e-01 7.090000000000000000e+02
3.331372022628784180e+00 -4.119470715522766113e-01 -1.876291185617446899e-01 6.880000000000000000e+02
3.302088022232055664e+00 -4.289170205593109131e-01 -1.855201125144958496e-01 5.480000000000000000e+02
3.284576177597045898e+00 -4.471552073955535889e-01 -1.843484491109848022e-01 5.540000000000000000e+02
3.321251153945922852e+00 -4.729161858558654785e-01 -1.874728947877883911e-01 2.610000000000000000e+02
3.999648332595825195e+00 -2.603590011596679688e+00 -2.985468804836273193e-01 1.790000000000000000e+02
3.956622362136840820e+00 -2.645273685455322266e+00 -2.975314259529113770e-01 5.500000000000000000e+01
3.927935361862182617e+00 -2.661114931106567383e+00 -2.963597774505615234e-01 4.200000000000000000e+01
3.917083024978637695e+00 -2.724483966827392578e+00 -2.984687685966491699e-01 2.900000000000000000e+01
3.883992433547973633e+00 -2.736983776092529297e+00 -2.969065308570861816e-01 2.000000000000000000e+01
3.873617172241210938e+00 -2.765397310256958008e+00 -2.975314259529113770e-01 1.600000000000000000e+01
3.833147287368774414e+00 -2.772173404693603516e+00 -2.952662110328674316e-01 9.000000000000000000e+00
3.776655435562133789e+00 -2.766775608062744141e+00 -2.914387583732604980e-01 1.900000000000000000e+01
3.693953990936279297e+00 -2.741187810897827148e+00 -2.850336432456970215e-01 3.100000000000000000e+01
3.724087476730346680e+00 -2.799137830734252930e+00 -2.896422147750854492e-01 7.500000000000000000e+01
3.733814716339111328e+00 -2.842464447021484375e+00 -2.922979891300201416e-01 1.740000000000000000e+02
3.633396863937377930e+00 -2.801413297653198242e+00 -2.840963304042816162e-01 3.700000000000000000e+01
3.274294376373291016e+00 1.623440384864807129e-01 -2.021316885948181152e-01 8.800000000000000000e+01
3.259300947189331055e+00 1.415593028068542480e-01 -2.007817178964614868e-01 8.700000000000000000e+01
3.253138065338134766e+00 1.212984025478363037e-01 -2.001910954713821411e-01 4.370000000000000000e+02
3.310590267181396484e+00 1.031003817915916443e-01 -2.050003856420516968e-01 6.620000000000000000e+02
3.336063861846923828e+00 8.340643346309661865e-02 -2.071097195148468018e-01 8.220000000000000000e+02
3.348467826843261719e+00 6.316007673740386963e-02 -2.081222087144851685e-01 8.270000000000000000e+02
3.346799612045288086e+00 4.258781671524047852e-02 -2.079534530639648438e-01 8.350000000000000000e+02
3.340023040771484375e+00 2.200582437217235565e-02 -2.073628455400466919e-01 8.470000000000000000e+02
3.338102340698242188e+00 1.510609756223857403e-03 -2.071941047906875610e-01 8.730000000000000000e+02
3.340041637420654297e+00 -1.898305304348468781e-02 -2.073628455400466919e-01 9.590000000000000000e+02
3.333884000778198242e+00 -3.940585255622863770e-02 -2.068566083908081055e-01 8.910000000000000000e+02
3.334575891494750977e+00 -5.987937748432159424e-02 -2.069409787654876709e-01 9.370000000000000000e+02
3.327172517776489258e+00 -8.017046004533767700e-02 -2.063503563404083252e-01 9.590000000000000000e+02
3.321638107299804688e+00 -1.004332825541496277e-01 -2.059284895658493042e-01 9.070000000000000000e+02
3.325938224792480469e+00 -1.209939494729042053e-01 -2.063503563404083252e-01 9.860000000000000000e+02
3.323142051696777344e+00 -1.413144767284393311e-01 -2.061816155910491943e-01 9.430000000000000000e+02
3.321217298507690430e+00 -1.616537421941757202e-01 -2.060972452163696289e-01 9.310000000000000000e+02
3.316183090209960938e+00 -1.818109154701232910e-01 -2.057597488164901733e-01 8.960000000000000000e+02
3.319977998733520508e+00 -2.024587243795394897e-01 -2.061816155910491943e-01 9.840000000000000000e+02
3.311713933944702148e+00 -2.223582863807678223e-01 -2.055910080671310425e-01 8.620000000000000000e+02
3.320224761962890625e+00 -2.434034198522567749e-01 -2.064347416162490845e-01 9.320000000000000000e+02
3.327608585357666016e+00 -2.644823193550109863e-01 -2.071941047906875610e-01 9.330000000000000000e+02
3.321951866149902344e+00 -2.845548093318939209e-01 -2.068566083908081055e-01 9.310000000000000000e+02
3.314189910888671875e+00 -3.043854832649230957e-01 -2.063503563404083252e-01 9.410000000000000000e+02
3.312259674072265625e+00 -3.247152268886566162e-01 -2.063503563404083252e-01 9.030000000000000000e+02
3.315160274505615234e+00 -3.455495238304138184e-01 -2.067722231149673462e-01 8.870000000000000000e+02
3.314958572387695312e+00 -3.661033213138580322e-01 -2.069409787654876709e-01 8.740000000000000000e+02
3.312649726867675781e+00 -3.864366114139556885e-01 -2.069409787654876709e-01 8.850000000000000000e+02
3.314172267913818359e+00 -4.072416722774505615e-01 -2.072784751653671265e-01 8.530000000000000000e+02
3.307657957077026367e+00 -4.270588457584381104e-01 -2.069409787654876709e-01 7.690000000000000000e+02
3.294113874435424805e+00 -4.458754658699035645e-01 -2.060128748416900635e-01 7.240000000000000000e+02
3.311047554016113281e+00 -4.688745439052581787e-01 -2.077003419399261475e-01 5.320000000000000000e+02
3.266708612442016602e+00 -4.830579459667205811e-01 -2.041566520929336548e-01 1.850000000000000000e+02
3.311938047409057617e+00 -5.105338692665100098e-01 -2.082909494638442993e-01 6.800000000000000000e+01
3.967005968093872070e+00 -2.441997051239013672e+00 -3.189889788627624512e-01 5.300000000000000000e+01
3.904610157012939453e+00 -2.436748027801513672e+00 -3.142640888690948486e-01 1.020000000000000000e+02
3.891269207000732422e+00 -2.461725950241088867e+00 -3.144328296184539795e-01 1.140000000000000000e+02
3.869380712509155273e+00 -2.481252670288085938e+00 -3.137578368186950684e-01 1.010000000000000000e+02
3.835703372955322266e+00 -2.493001222610473633e+00 -3.119016289710998535e-01 1.750000000000000000e+02
3.798699617385864258e+00 -2.502237558364868164e+00 -3.097079098224639893e-01 8.800000000000000000e+01
3.814766168594360352e+00 -2.546522378921508789e+00 -3.129141032695770264e-01 7.500000000000000000e+01
3.771008491516113281e+00 -2.550898313522338867e+00 -3.100453913211822510e-01 6.100000000000000000e+01
3.804598093032836914e+00 -2.607791662216186523e+00 -3.151078224182128906e-01 1.330000000000000000e+02
3.792617321014404297e+00 -2.633929252624511719e+00 -3.155296742916107178e-01 1.530000000000000000e+02
3.727490425109863281e+00 -2.622745275497436523e+00 -3.104672729969024658e-01 9.500000000000000000e+01
3.680495500564575195e+00 -2.623587369918823242e+00 -3.072610795497894287e-01 9.000000000000000000e+01
3.780651569366455078e+00 -2.730128288269042969e+00 -3.194108605384826660e-01 9.900000000000000000e+01
3.723618268966674805e+00 -2.723858118057250977e+00 -3.151921927928924561e-01 6.800000000000000000e+01
3.674010992050170898e+00 -2.722331285476684570e+00 -3.117328584194183350e-01 3.900000000000000000e+01
3.671582698822021484e+00 -2.755589962005615234e+00 -3.132515847682952881e-01 1.200000000000000000e+01
3.671440601348876953e+00 -2.826577663421630859e+00 -3.168796598911285400e-01 1.540000000000000000e+02
3.610024213790893555e+00 -2.814739704132080078e+00 -3.121547400951385498e-01 2.200000000000000000e+01
3.309547424316406250e+00 1.609633266925811768e-01 -2.248395085334777832e-01 1.390000000000000000e+02
3.306492805480957031e+00 1.404835879802703857e-01 -2.244783788919448853e-01 1.800000000000000000e+02
3.305302143096923828e+00 1.201200410723686218e-01 -2.242978066205978394e-01 6.580000000000000000e+02
3.329867839813232422e+00 1.005619391798973083e-01 -2.264646440744400024e-01 7.890000000000000000e+02
3.334404706954956055e+00 8.022478222846984863e-02 -2.268257737159729004e-01 8.970000000000000000e+02
3.330851316452026367e+00 5.969176813960075378e-02 -2.264646440744400024e-01 8.030000000000000000e+02
3.341113328933715820e+00 3.937177360057830811e-02 -2.273674905300140381e-01 9.140000000000000000e+02
3.337308406829833984e+00 1.884724944829940796e-02 -2.270063459873199463e-01 9.020000000000000000e+02
3.330389738082885742e+00 -1.628086902201175690e-03 -2.263743579387664795e-01 8.680000000000000000e+02
3.325337648391723633e+00 -2.203070558607578278e-02 -2.259229272603988647e-01 8.740000000000000000e+02
3.326135635375976562e+00 -4.244673624634742737e-02 -2.260132133960723877e-01 8.770000000000000000e+02
3.322825431823730469e+00 -6.279871612787246704e-02 -2.257423549890518188e-01 8.680000000000000000e+02
3.313416957855224609e+00 -8.296301215887069702e-02 -2.249297946691513062e-01 8.420000000000000000e+02
3.312845468521118164e+00 -1.032921895384788513e-01 -2.249297946691513062e-01 8.430000000000000000e+02
3.319116115570068359e+00 -1.238764375448226929e-01 -2.255617976188659668e-01 8.660000000000000000e+02
3.321278333663940430e+00 -1.443691253662109375e-01 -2.258326411247253418e-01 8.150000000000000000e+02
3.323314189910888672e+00 -1.648929864168167114e-01 -2.261034995317459106e-01 8.390000000000000000e+02
3.325222969055175781e+00 -1.854472756385803223e-01 -2.263743579387664795e-01 8.670000000000000000e+02
3.323028326034545898e+00 -2.057855725288391113e-01 -2.262840718030929565e-01 8.420000000000000000e+02
3.327664852142333984e+00 -2.265764325857162476e-01 -2.268257737159729004e-01 8.590000000000000000e+02
3.319259643554687500e+00 -2.464751452207565308e-01 -2.261937856674194336e-01 8.210000000000000000e+02
3.326619386672973633e+00 -2.675543427467346191e-01 -2.270063459873199463e-01 7.690000000000000000e+02
3.332852840423583984e+00 -2.886472940444946289e-01 -2.277286350727081299e-01 7.640000000000000000e+02
3.327052354812622070e+00 -3.087244033813476562e-01 -2.273674905300140381e-01 7.850000000000000000e+02
3.325095415115356445e+00 -3.291330039501190186e-01 -2.273674905300140381e-01 7.950000000000000000e+02
3.306175231933593750e+00 -3.477606773376464844e-01 -2.258326411247253418e-01 7.530000000000000000e+02
3.300019979476928711e+00 -3.675999939441680908e-01 -2.254715114831924438e-01 7.550000000000000000e+02
3.306604385375976562e+00 -3.888872265815734863e-01 -2.262840718030929565e-01 7.170000000000000000e+02
3.308109521865844727e+00 -4.096578359603881836e-01 -2.266452163457870483e-01 7.410000000000000000e+02
3.262078523635864258e+00 -4.243027865886688232e-01 -2.226726710796356201e-01 5.620000000000000000e+02
3.263360738754272461e+00 -4.448479712009429932e-01 -2.230338156223297119e-01 5.620000000000000000e+02
3.308882236480712891e+00 -4.717436730861663818e-01 -2.274577766656875610e-01 3.110000000000000000e+02
3.996267080307006836e+00 -2.233927249908447266e+00 -3.395013809204101562e-01 1.500000000000000000e+01
3.972869157791137695e+00 -2.285281896591186523e+00 -3.399528264999389648e-01 1.300000000000000000e+01
3.993183135986328125e+00 -2.329686880111694336e+00 -3.435642123222351074e-01 1.300000000000000000e+02
3.983956336975097656e+00 -2.357187032699584961e+00 -3.441059291362762451e-01 3.900000000000000000e+01
3.946358442306518555e+00 -2.367755889892578125e+00 -3.416682183742523193e-01 5.000000000000000000e+01
3.984866142272949219e+00 -2.491730928421020508e+00 -3.505161702632904053e-01 1.700000000000000000e+01
3.948471546173095703e+00 -2.502807140350341797e+00 -3.482590317726135254e-01 2.600000000000000000e+01
3.995047569274902344e+00 -2.566817998886108398e+00 -3.549401164054870605e-01 1.800000000000000000e+01
3.884910821914672852e+00 -2.529880762100219727e+00 -3.447379171848297119e-01 2.200000000000000000e+01
3.870146036148071289e+00 -2.554219007492065430e+00 -3.448282182216644287e-01 1.600000000000000000e+01
3.923115253448486328e+00 -2.623864889144897461e+00 -3.523218631744384766e-01 1.700000000000000000e+01
3.813776016235351562e+00 -2.584759712219238281e+00 -3.421196639537811279e-01 2.000000000000000000e+01
3.878305673599243164e+00 -2.663354635238647461e+00 -3.509675860404968262e-01 1.600000000000000000e+01
3.824572324752807617e+00 -2.731396675109863281e+00 -3.505161702632904053e-01 1.700000000000000000e+01
3.810046434402465820e+00 -2.792251348495483398e+00 -3.526830077171325684e-01 1.100000000000000000e+01
3.747257232666015625e+00 -2.781744956970214844e+00 -3.475367426872253418e-01 2.300000000000000000e+01
3.685538291931152344e+00 -2.771173238754272461e+00 -3.424808084964752197e-01 9.000000000000000000e+00
3.536108970642089844e+00 -2.727400779724121094e+00 -3.292991816997528076e-01 2.490000000000000000e+02
3.220944881439208984e+00 1.602627038955688477e-01 -2.371671050786972046e-01 8.100000000000000000e+01
3.250704765319824219e+00 1.417524069547653198e-01 -2.399667799472808838e-01 1.100000000000000000e+02
3.278368473052978516e+00 1.228084638714790344e-01 -2.425733804702758789e-01 4.930000000000000000e+02
3.328802347183227539e+00 1.042457967996597290e-01 -2.474004179239273071e-01 6.870000000000000000e+02
3.337339639663696289e+00 8.401870727539062500e-02 -2.481727302074432373e-01 8.100000000000000000e+02
3.340777635574340820e+00 6.359627842903137207e-02 -2.484623640775680542e-01 8.450000000000000000e+02
3.330157279968261719e+00 4.295577108860015869e-02 -2.474004179239273071e-01 8.390000000000000000e+02
3.326376914978027344e+00 2.249477058649063110e-02 -2.470142543315887451e-01 8.160000000000000000e+02
3.334414958953857422e+00 2.088685054332017899e-03 -2.477865815162658691e-01 8.970000000000000000e+02
3.324411869049072266e+00 -1.831562258303165436e-02 -2.468211650848388672e-01 8.870000000000000000e+02
3.325232267379760742e+00 -3.872512280941009521e-02 -2.469177097082138062e-01 8.970000000000000000e+02
3.321946382522583008e+00 -5.907439813017845154e-02 -2.466280907392501831e-01 8.920000000000000000e+02
3.320526361465454102e+00 -7.943251729011535645e-02 -2.465315461158752441e-01 9.120000000000000000e+02
3.322961091995239258e+00 -9.989526122808456421e-02 -2.468211650848388672e-01 9.200000000000000000e+02
3.325269699096679688e+00 -1.203908622264862061e-01 -2.471107840538024902e-01 9.350000000000000000e+02
3.325462818145751953e+00 -1.408342272043228149e-01 -2.472073286771774292e-01 9.070000000000000000e+02
3.322547674179077148e+00 -1.611397117376327515e-01 -2.470142543315887451e-01 9.070000000000000000e+02
3.324477910995483398e+00 -1.816865354776382446e-01 -2.473038733005523682e-01 9.200000000000000000e+02
3.328268051147460938e+00 -2.023840248584747314e-01 -2.477865815162658691e-01 9.380000000000000000e+02
3.327956676483154297e+00 -2.228686362504959106e-01 -2.478831112384796143e-01 9.450000000000000000e+02
3.330497264862060547e+00 -2.435749918222427368e-01 -2.482692748308181763e-01 9.320000000000000000e+02
3.325963497161865234e+00 -2.637697458267211914e-01 -2.479796558618545532e-01 9.390000000000000000e+02
3.321307182312011719e+00 -2.839180231094360352e-01 -2.476900368928909302e-01 9.420000000000000000e+02
3.324458360671997070e+00 -3.047463893890380859e-01 -2.481727302074432373e-01 9.160000000000000000e+02
3.327478885650634766e+00 -3.256240785121917725e-01 -2.486554384231567383e-01 9.180000000000000000e+02
3.321458339691162109e+00 -3.456227183341979980e-01 -2.482692748308181763e-01 8.410000000000000000e+02
3.313339233398437500e+00 -3.653414845466613770e-01 -2.476900368928909302e-01 8.400000000000000000e+02
3.300160169601440430e+00 -3.843976259231567383e-01 -2.466280907392501831e-01 8.220000000000000000e+02
3.293787717819213867e+00 -4.041547179222106934e-01 -2.462419271469116211e-01 8.140000000000000000e+02
3.294207334518432617e+00 -4.247393906116485596e-01 -2.465315461158752441e-01 8.050000000000000000e+02
3.289566516876220703e+00 -4.446775317192077637e-01 -2.463384717702865601e-01 7.530000000000000000e+02
3.288747072219848633e+00 -4.651324152946472168e-01 -2.465315461158752441e-01 6.040000000000000000e+02
3.259245872497558594e+00 -4.813751876354217529e-01 -2.439249455928802490e-01 2.070000000000000000e+02
3.291645050048828125e+00 -5.068190097808837891e-01 -2.474004179239273071e-01 9.700000000000000000e+01
3.962340831756591797e+00 -2.306066989898681641e+00 -3.690416216850280762e-01 1.130000000000000000e+02
3.952531814575195312e+00 -2.365763902664184570e+00 -3.711655139923095703e-01 1.000000000000000000e+01
3.566447973251342773e+00 -2.641663074493408203e+00 -3.548501431941986084e-01 2.900000000000000000e+01
3.987257242202758789e+00 -2.991442203521728516e+00 -4.078509807586669922e-01 3.000000000000000000e+01
3.420202016830444336e+00 -2.632191896438598633e+00 -3.429756462574005127e-01 1.320000000000000000e+02
3.525664806365966797e+00 -2.747973442077636719e+00 -3.579394519329071045e-01 2.580000000000000000e+02
3.340425968170166016e+00 1.624698191881179810e-01 -2.687152922153472900e-01 1.620000000000000000e+02
3.361236572265625000e+00 1.428178101778030396e-01 -2.707642018795013428e-01 1.850000000000000000e+02
3.294452428817749023e+00 1.197241023182868958e-01 -2.637979090213775635e-01 7.090000000000000000e+02
3.332907676696777344e+00 1.006541997194290161e-01 -2.676908373832702637e-01 8.380000000000000000e+02
3.330479145050048828e+00 8.012974262237548828e-02 -2.673835158348083496e-01 8.790000000000000000e+02
3.329913616180419922e+00 5.967482179403305054e-02 -2.672810554504394531e-01 8.700000000000000000e+02
3.331211805343627930e+00 3.925360366702079773e-02 -2.673835158348083496e-01 9.300000000000000000e+02
3.332384586334228516e+00 1.881870254874229431e-02 -2.674859464168548584e-01 8.950000000000000000e+02
3.338405847549438477e+00 -1.630797516554594040e-03 -2.681006193161010742e-01 8.900000000000000000e+02
3.332364559173583984e+00 -2.207619883120059967e-02 -2.674859464168548584e-01 8.410000000000000000e+02
3.327193021774291992e+00 -4.246007278561592102e-02 -2.669737339019775391e-01 9.180000000000000000e+02
3.317918777465820312e+00 -6.270673125982284546e-02 -2.660517096519470215e-01 9.120000000000000000e+02
3.327415943145751953e+00 -8.331140130758285522e-02 -2.670761644840240479e-01 9.310000000000000000e+02
3.319882392883300781e+00 -1.035105288028717041e-01 -2.663590610027313232e-01 8.730000000000000000e+02
3.322166919708251953e+00 -1.239898428320884705e-01 -2.666663825511932373e-01 9.020000000000000000e+02
3.322337388992309570e+00 -1.444149911403656006e-01 -2.667688429355621338e-01 9.410000000000000000e+02
3.317414522171020508e+00 -1.646011620759963989e-01 -2.663590610027313232e-01 8.730000000000000000e+02
3.323294639587402344e+00 -1.853400319814682007e-01 -2.670761644840240479e-01 9.170000000000000000e+02
3.318123340606689453e+00 -2.054825574159622192e-01 -2.666663825511932373e-01 8.540000000000000000e+02
3.320770025253295898e+00 -2.261079996824264526e-01 -2.670761644840240479e-01 8.710000000000000000e+02
3.307415723800659180e+00 -2.455974519252777100e-01 -2.658468186855316162e-01 8.350000000000000000e+02
3.296922683715820312e+00 -2.651703655719757080e-01 -2.649248242378234863e-01 8.220000000000000000e+02
3.297215700149536133e+00 -2.855662703514099121e-01 -2.651297152042388916e-01 8.010000000000000000e+02
3.293420314788818359e+00 -3.056087195873260498e-01 -2.649248242378234863e-01 7.520000000000000000e+02
3.280594110488891602e+00 -3.247348070144653320e-01 -2.637979090213775635e-01 7.490000000000000000e+02
3.271614789962768555e+00 -3.441306948661804199e-01 -2.630808055400848389e-01 7.470000000000000000e+02
3.280316591262817383e+00 -3.654082119464874268e-01 -2.642076909542083740e-01 7.670000000000000000e+02
3.292831897735595703e+00 -3.872695863246917725e-01 -2.657443881034851074e-01 7.820000000000000000e+02
3.294342756271362305e+00 -4.079551398754119873e-01 -2.661541700363159180e-01 7.480000000000000000e+02
3.285858869552612305e+00 -4.273922145366668701e-01 -2.655394971370697021e-01 6.540000000000000000e+02
3.276274919509887695e+00 -4.466063976287841797e-01 -2.648223638534545898e-01 5.950000000000000000e+02
3.281351327896118164e+00 -4.678228199481964111e-01 -2.656419277191162109e-01 3.640000000000000000e+02
3.307936906814575195e+00 -4.923367500305175781e-01 -2.687152922153472900e-01 3.900000000000000000e+01
3.865298032760620117e+00 -2.068294763565063477e+00 -3.757706582546234131e-01 3.800000000000000000e+01
3.991556644439697266e+00 -2.231294870376586914e+00 -3.952352404594421387e-01 1.720000000000000000e+02
3.966541290283203125e+00 -2.249366760253906250e+00 -3.939034640789031982e-01 1.550000000000000000e+02
3.954389333724975586e+00 -2.274654626846313477e+00 -3.941083550453186035e-01 1.300000000000000000e+02
3.900831937789916992e+00 -2.275821208953857422e+00 -3.893958628177642822e-01 1.470000000000000000e+02
3.911623239517211914e+00 -2.314400196075439453e+00 -3.923667967319488525e-01 2.200000000000000000e+01
3.975951433181762695e+00 -2.486157894134521484e+00 -4.072213470935821533e-01 2.500000000000000000e+01
3.583780288696289062e+00 -2.493636369705200195e+00 -3.739266395568847656e-01 8.000000000000000000e+00
3.559468269348144531e+00 -2.509275436401367188e+00 -3.727997243404388428e-01 1.500000000000000000e+01
3.546945571899414062e+00 -2.566175460815429688e+00 -3.751559853553771973e-01 1.000000000000000000e+01
3.506400823593139648e+00 -2.602987527847290039e+00 -3.740290701389312744e-01 2.400000000000000000e+01
3.509446382522583008e+00 -2.638798713684082031e+00 -3.764877617359161377e-01 1.900000000000000000e+01
3.280571937561035156e+00 1.632265448570251465e-01 -2.821893692016601562e-01 8.500000000000000000e+01
3.259661912918090820e+00 1.421425491571426392e-01 -2.798057198524475098e-01 1.140000000000000000e+02
3.298222541809082031e+00 1.235512346029281616e-01 -2.839229106903076172e-01 5.110000000000000000e+02
3.320778369903564453e+00 1.039949059486389160e-01 -2.863065302371978760e-01 7.290000000000000000e+02
3.331291913986206055e+00 8.386674523353576660e-02 -2.873899936676025391e-01 8.040000000000000000e+02
3.322798490524291992e+00 6.325488537549972534e-02 -2.864148616790771484e-01 7.940000000000000000e+02
3.329088211059570312e+00 4.294203221797943115e-02 -2.870649397373199463e-01 8.920000000000000000e+02
3.338235855102539062e+00 2.257439307868480682e-02 -2.880400717258453369e-01 8.730000000000000000e+02
3.347258567810058594e+00 2.096110489219427109e-03 -2.890151739120483398e-01 8.620000000000000000e+02
3.342237949371337891e+00 -1.841469667851924896e-02 -2.884734570980072021e-01 9.410000000000000000e+02
3.327151298522949219e+00 -3.874756768345832825e-02 -2.868482470512390137e-01 9.510000000000000000e+02
3.313929557800292969e+00 -5.893144756555557251e-02 -2.854397594928741455e-01 9.050000000000000000e+02
3.320462465286254883e+00 -7.943098247051239014e-02 -2.861981689929962158e-01 9.440000000000000000e+02
3.320906162261962891e+00 -9.983337670564651489e-02 -2.863065302371978760e-01 9.590000000000000000e+02
3.318244218826293945e+00 -1.201361641287803650e-01 -2.860898375511169434e-01 9.810000000000000000e+02
3.312478542327880859e+00 -1.402837038040161133e-01 -2.855480909347534180e-01 9.240000000000000000e+02
3.317512989044189453e+00 -1.608952879905700684e-01 -2.861981689929962158e-01 9.830000000000000000e+02
3.315470695495605469e+00 -1.811938285827636719e-01 -2.860898375511169434e-01 9.450000000000000000e+02
3.317273378372192383e+00 -2.017149329185485840e-01 -2.864148616790771484e-01 9.380000000000000000e+02
3.318948745727539062e+00 -2.222649604082107544e-01 -2.867399156093597412e-01 9.310000000000000000e+02
3.318514108657836914e+00 -2.426980137825012207e-01 -2.868482470512390137e-01 9.120000000000000000e+02
3.312998294830322266e+00 -2.627409100532531738e-01 -2.864148616790771484e-01 9.660000000000000000e+02
3.306371450424194336e+00 -2.826405465602874756e-01 -2.858731448650360107e-01 8.640000000000000000e+02
3.309524774551391602e+00 -3.033767044544219971e-01 -2.864148616790771484e-01 8.750000000000000000e+02
3.309579610824584961e+00 -3.238715827465057373e-01 -2.866315543651580811e-01 9.390000000000000000e+02
3.306541442871093750e+00 -3.440697491168975830e-01 -2.865232229232788086e-01 9.070000000000000000e+02
3.303379774093627930e+00 -3.642428517341613770e-01 -2.864148616790771484e-01 8.850000000000000000e+02
3.306019783020019531e+00 -3.850804567337036133e-01 -2.869566082954406738e-01 8.580000000000000000e+02
3.307541608810424805e+00 -4.058430492877960205e-01 -2.873899936676025391e-01 8.100000000000000000e+02
3.301045417785644531e+00 -4.256214201450347900e-01 -2.869566082954406738e-01 8.060000000000000000e+02
3.294430971145629883e+00 -4.453353583812713623e-01 -2.865232229232788086e-01 7.800000000000000000e+02
3.275887489318847656e+00 -4.633130431175231934e-01 -2.847896814346313477e-01 5.850000000000000000e+02
3.268065929412841797e+00 -4.826782941818237305e-01 -2.842479348182678223e-01 2.070000000000000000e+02
3.262095212936401367e+00 -5.022677183151245117e-01 -2.839229106903076172e-01 1.160000000000000000e+02
3.922969102859497070e+00 -2.093773126602172852e+00 -4.088462591171264648e-01 5.000000000000000000e+01
3.960746526718139648e+00 -2.145266771316528320e+00 -4.151303470134735107e-01 1.440000000000000000e+02
3.957962989807128906e+00 -2.175275325775146484e+00 -4.164305031299591064e-01 1.580000000000000000e+02
3.935858964920043945e+00 -2.194678068161010742e+00 -4.153470396995544434e-01 1.380000000000000000e+02
3.879921436309814453e+00 -2.194801330566406250e+00 -4.100380837917327881e-01 8.100000000000000000e+01
3.614827156066894531e+00 -2.677500247955322266e+00 -4.144802689552307129e-01 1.100000000000000000e+01
3.478258848190307617e+00 -2.609540224075317383e+00 -3.981199860572814941e-01 2.200000000000000000e+01
3.420764446258544922e+00 -2.632624626159667969e+00 -3.946529030799865723e-01 1.900000000000000000e+01
3.397490024566650391e+00 -2.648064136505126953e+00 -3.936777710914611816e-01 3.700000000000000000e+02
3.516948938369750977e+00 -2.776037216186523438e+00 -4.125300347805023193e-01 1.610000000000000000e+02
3.801274299621582031e+00 2.852898836135864258e+00 -4.706732332706451416e-01 2.570000000000000000e+02
3.793965101242065430e+00 2.811183452606201172e+00 -4.671317040920257568e-01 2.800000000000000000e+02
3.835997581481933594e+00 2.806036472320556641e+00 -4.706732332706451416e-01 6.170000000000000000e+02
3.878913879394531250e+00 2.801060438156127930e+00 -4.743290543556213379e-01 5.180000000000000000e+02
3.923530578613281250e+00 2.796816349029541016e+00 -4.782133102416992188e-01 4.600000000000000000e+01
3.282542943954467773e+00 1.596458256244659424e-01 -3.020496666431427002e-01 1.360000000000000000e+02
3.283460617065429688e+00 1.395015120506286621e-01 -3.020496666431427002e-01 1.690000000000000000e+02
3.300139427185058594e+00 1.199316456913948059e-01 -3.038775622844696045e-01 6.580000000000000000e+02
3.310743093490600586e+00 9.998149424791336060e-02 -3.050200045108795166e-01 7.620000000000000000e+02
3.317253351211547852e+00 7.980953902006149292e-02 -3.057054579257965088e-01 8.280000000000000000e+02
3.314700603485107422e+00 5.939990282058715820e-02 -3.053627312183380127e-01 8.110000000000000000e+02
3.316989421844482422e+00 3.908387199044227600e-02 -3.055912256240844727e-01 8.440000000000000000e+02
3.314186573028564453e+00 1.871319301426410675e-02 -3.052484989166259766e-01 8.640000000000000000e+02
3.311258554458618164e+00 -1.621617586351931095e-03 -3.049057424068450928e-01 8.680000000000000000e+02
3.318140506744384766e+00 -2.198410965502262115e-02 -3.057054579257965088e-01 9.120000000000000000e+02
3.313969612121582031e+00 -4.229331389069557190e-02 -3.052484989166259766e-01 8.330000000000000000e+02
3.308681249618530273e+00 -6.253354251384735107e-02 -3.046772778034210205e-01 8.920000000000000000e+02
3.305255889892578125e+00 -8.275990188121795654e-02 -3.043345510959625244e-01 9.110000000000000000e+02
3.303692817687988281e+00 -1.030082032084465027e-01 -3.042202889919281006e-01 8.700000000000000000e+02
3.299027442932128906e+00 -1.231297329068183899e-01 -3.037633299827575684e-01 8.450000000000000000e+02
3.300194978713989258e+00 -1.434558480978012085e-01 -3.039917945861816406e-01 9.040000000000000000e+02
3.302229404449462891e+00 -1.638500094413757324e-01 -3.043345510959625244e-01 8.920000000000000000e+02
3.307113409042358398e+00 -1.844400465488433838e-01 -3.050200045108795166e-01 8.180000000000000000e+02
3.313851833343505859e+00 -2.052186727523803711e-01 -3.059339523315429688e-01 8.100000000000000000e+02
3.310547828674316406e+00 -2.254135459661483765e-01 -3.057054579257965088e-01 8.530000000000000000e+02
3.303158044815063477e+00 -2.452819347381591797e-01 -3.050200045108795166e-01 8.100000000000000000e+02
3.295649290084838867e+00 -2.650681436061859131e-01 -3.043345510959625244e-01 8.200000000000000000e+02
3.296930074691772461e+00 -2.855415940284729004e-01 -3.046772778034210205e-01 7.950000000000000000e+02
3.286213159561157227e+00 -3.049410283565521240e-01 -3.036490678787231445e-01 7.640000000000000000e+02
3.286257266998291016e+00 -3.252945244312286377e-01 -3.038775622844696045e-01 7.580000000000000000e+02
3.300995826721191406e+00 -3.472166657447814941e-01 -3.058197200298309326e-01 7.370000000000000000e+02
3.294853687286376953e+00 -3.670253157615661621e-01 -3.053627312183380127e-01 7.680000000000000000e+02
3.287606477737426758e+00 -3.866557776927947998e-01 -3.047915101051330566e-01 7.520000000000000000e+02
3.290101766586303711e+00 -4.074305891990661621e-01 -3.053627312183380127e-01 7.450000000000000000e+02
3.273747444152832031e+00 -4.258187413215637207e-01 -3.037633299827575684e-01 6.310000000000000000e+02
3.263198137283325195e+00 -4.448258280754089355e-01 -3.028493821620941162e-01 6.170000000000000000e+02
3.253522396087646484e+00 -4.638595581054687500e-01 -3.020496666431427002e-01 4.080000000000000000e+02
3.869504451751708984e+00 -2.009861946105957031e+00 -4.255470037460327148e-01 2.030000000000000000e+02
3.912466764450073242e+00 -2.062749862670898438e+00 -4.327443540096282959e-01 1.100000000000000000e+01
3.890976428985595703e+00 -2.082031488418579102e+00 -4.316019415855407715e-01 1.300000000000000000e+01
3.439990520477294922e+00 -2.456801652908325195e+00 -4.102383852005004883e-01 1.100000000000000000e+01
3.463590145111083984e+00 -2.571214437484741211e+00 -4.201775789260864258e-01 2.100000000000000000e+01
3.283085346221923828e+00 1.627794653177261353e-01 -3.218237459659576416e-01 9.700000000000000000e+01
3.283030509948730469e+00 1.425887495279312134e-01 -3.217036128044128418e-01 8.700000000000000000e+01
3.258049726486206055e+00 1.214812994003295898e-01 -3.185800611972808838e-01 4.570000000000000000e+02
3.317278146743774414e+00 1.033083274960517883e-01 -3.256681263446807861e-01 7.290000000000000000e+02
3.316857337951660156e+00 8.292718231678009033e-02 -3.255479931831359863e-01 8.060000000000000000e+02
3.317303657531738281e+00 6.257376819849014282e-02 -3.255479931831359863e-01 8.180000000000000000e+02
3.315639734268188477e+00 4.219282791018486023e-02 -3.253077268600463867e-01 8.740000000000000000e+02
3.318814516067504883e+00 2.186712808907032013e-02 -3.256681263446807861e-01 8.660000000000000000e+02
3.322857141494750977e+00 1.504456624388694763e-03 -3.261486887931823730e-01 8.680000000000000000e+02
3.319825649261474609e+00 -1.886716857552528381e-02 -3.257882595062255859e-01 9.050000000000000000e+02
3.315676689147949219e+00 -3.918975219130516052e-02 -3.253077268600463867e-01 9.150000000000000000e+02
3.303462505340576172e+00 -5.931914970278739929e-02 -3.238660693168640137e-01 9.450000000000000000e+02
3.302043914794921875e+00 -7.956373691558837891e-02 -3.237459361553192139e-01 9.430000000000000000e+02
3.301493644714355469e+00 -9.982319921255111694e-02 -3.237459361553192139e-01 9.300000000000000000e+02
3.298834800720214844e+00 -1.200066208839416504e-01 -3.235056698322296143e-01 9.750000000000000000e+02
3.298036336898803711e+00 -1.402456313371658325e-01 -3.235056698322296143e-01 9.650000000000000000e+02
3.300088405609130859e+00 -1.606242954730987549e-01 -3.238660693168640137e-01 9.430000000000000000e+02
3.300031900405883789e+00 -1.809246391057968140e-01 -3.239862024784088135e-01 1.000000000000000000e+03
3.294896125793457031e+00 -2.009279429912567139e-01 -3.235056698322296143e-01 9.470000000000000000e+02
3.292610645294189453e+00 -2.210747003555297852e-01 -3.233855366706848145e-01 1.001000000000000000e+03
3.296142816543579102e+00 -2.416367828845977783e-01 -3.239862024784088135e-01 9.340000000000000000e+02
3.298556566238403320e+00 -2.621718049049377441e-01 -3.244667649269104004e-01 9.350000000000000000e+02
3.300842285156250000e+00 -2.827455401420593262e-01 -3.249472975730895996e-01 9.740000000000000000e+02
3.299045324325561523e+00 -3.029938042163848877e-01 -3.249472975730895996e-01 9.370000000000000000e+02
3.295147895812988281e+00 -3.230368494987487793e-01 -3.247070312500000000e-01 9.250000000000000000e+02
3.290141582489013672e+00 -3.429405093193054199e-01 -3.243466317653656006e-01 8.870000000000000000e+02
3.289948940277099609e+00 -3.633400201797485352e-01 -3.245868980884552002e-01 8.880000000000000000e+02
3.287657737731933594e+00 -3.835199475288391113e-01 -3.245868980884552002e-01 8.430000000000000000e+02
3.285242557525634766e+00 -4.036854207515716553e-01 -3.245868980884552002e-01 8.360000000000000000e+02
3.285657405853271484e+00 -4.242171943187713623e-01 -3.249472975730895996e-01 8.840000000000000000e+02
3.276106119155883789e+00 -4.434371590614318848e-01 -3.241063356399536133e-01 7.520000000000000000e+02
3.267426013946533203e+00 -4.626951515674591064e-01 -3.233855366706848145e-01 7.150000000000000000e+02
3.272382020950317383e+00 -4.838971793651580811e-01 -3.243466317653656006e-01 2.370000000000000000e+02
3.240897655487060547e+00 -4.995794892311096191e-01 -3.208626508712768555e-01 1.400000000000000000e+02
3.929422616958618164e+00 -2.036526441574096680e+00 -4.596207141876220703e-01 2.350000000000000000e+02
3.930909872055053711e+00 -2.067994594573974609e+00 -4.615429043769836426e-01 2.100000000000000000e+01
3.919022798538208008e+00 -2.092542886734008789e+00 -4.616630375385284424e-01 1.300000000000000000e+01
3.820818424224853516e+00 -2.831119298934936523e+00 -4.995061457157135010e-01 2.300000000000000000e+01
3.278785467147827148e+00 -2.524257421493530273e+00 -4.247810244560241699e-01 2.200000000000000000e+01
3.326648712158203125e+00 -2.593775272369384766e+00 -4.345121085643768311e-01 6.500000000000000000e+01
3.370663404464721680e+00 -2.661512851715087891e+00 -4.437626302242279053e-01 5.100000000000000000e+02
3.360471963882446289e+00 -2.687104940414428711e+00 -4.447237253189086914e-01 4.600000000000000000e+01
3.572726488113403320e+00 2.648180723190307617e+00 -4.904910027980804443e-01 5.300000000000000000e+02
3.908297777175903320e+00 2.859980344772338867e+00 -5.409134626388549805e-01 5.700000000000000000e+01
3.905671358108520508e+00 2.821421384811401367e+00 -5.377541780471801758e-01 1.400000000000000000e+01
3.972981214523315430e+00 2.833117008209228516e+00 -5.455892682075500488e-01 2.200000000000000000e+01
3.293531417846679688e+00 1.607557237148284912e-01 -3.440257310867309570e-01 1.780000000000000000e+02
3.313286304473876953e+00 1.413501799106597900e-01 -3.464268147945404053e-01 1.810000000000000000e+02
3.274438619613647461e+00 1.195635795593261719e-01 -3.413719236850738525e-01 6.660000000000000000e+02
3.302873134613037109e+00 1.003172174096107483e-01 -3.449103534221649170e-01 7.980000000000000000e+02
3.302434682846069336e+00 8.002509921789169312e-02 -3.447839617729187012e-01 8.280000000000000000e+02
3.296912670135498047e+00 5.965165421366691589e-02 -3.440257310867309570e-01 8.140000000000000000e+02
3.301184415817260742e+00 3.946909680962562561e-02 -3.445312380790710449e-01 8.410000000000000000e+02
3.296404600143432617e+00 1.918304711580276489e-02 -3.438993692398071289e-01 8.150000000000000000e+02
3.291500329971313477e+00 -1.042861142195761204e-03 -3.432675004005432129e-01 8.500000000000000000e+02
3.288455963134765625e+00 -2.122035995125770569e-02 -3.428883850574493408e-01 8.800000000000000000e+02
3.290247678756713867e+00 -4.142221808433532715e-02 -3.431411385536193848e-01 8.900000000000000000e+02
3.283980846405029297e+00 -6.149949133396148682e-02 -3.423829078674316406e-01 8.660000000000000000e+02
3.292466640472412109e+00 -8.186902105808258057e-02 -3.435202538967132568e-01 8.520000000000000000e+02
3.301817417144775391e+00 -1.023755893111228943e-01 -3.447839617729187012e-01 8.720000000000000000e+02
3.299144506454467773e+00 -1.225598827004432678e-01 -3.445312380790710449e-01 8.680000000000000000e+02
3.286437749862670898e+00 -1.422876715660095215e-01 -3.430147767066955566e-01 8.700000000000000000e+02
3.279558181762695312e+00 -1.621571779251098633e-01 -3.422565460205078125e-01 8.400000000000000000e+02
3.281472682952880859e+00 -1.824418604373931885e-01 -3.426356613636016846e-01 8.320000000000000000e+02
3.283261775970458984e+00 -2.027561366558074951e-01 -3.430147767066955566e-01 8.290000000000000000e+02
3.278986930847167969e+00 -2.226968407630920410e-01 -3.426356613636016846e-01 8.150000000000000000e+02
3.285472869873046875e+00 -2.433972209692001343e-01 -3.436466157436370850e-01 7.680000000000000000e+02
3.283917665481567383e+00 -2.635519206523895264e-01 -3.436466157436370850e-01 7.730000000000000000e+02
3.274332284927368164e+00 -2.830145359039306641e-01 -3.426356613636016846e-01 7.960000000000000000e+02
3.274509429931640625e+00 -3.032827973365783691e-01 -3.428883850574493408e-01 7.860000000000000000e+02
3.274561405181884766e+00 -3.235639035701751709e-01 -3.431411385536193848e-01 7.360000000000000000e+02
3.271527767181396484e+00 -3.435466885566711426e-01 -3.430147767066955566e-01 7.550000000000000000e+02
3.289076566696166992e+00 -3.658039271831512451e-01 -3.455422222614288330e-01 7.060000000000000000e+02
3.287755489349365234e+00 -3.860939741134643555e-01 -3.456685841083526611e-01 7.030000000000000000e+02
3.280401945114135742e+00 -4.056520462036132812e-01 -3.450367152690887451e-01 7.160000000000000000e+02
3.275883674621582031e+00 -4.255173206329345703e-01 -3.447839617729187012e-01 6.510000000000000000e+02
3.227996110916137695e+00 -4.394612908363342285e-01 -3.389708697795867920e-01 5.480000000000000000e+02
3.248809099197387695e+00 -4.626122117042541504e-01 -3.420037925243377686e-01 4.030000000000000000e+02
3.245909452438354492e+00 -4.825378060340881348e-01 -3.420037925243377686e-01 2.600000000000000000e+01
3.819856405258178711e+00 -1.953577041625976562e+00 -4.705242216587066650e-01 1.210000000000000000e+02
3.852700233459472656e+00 -2.000284910202026367e+00 -4.769692122936248779e-01 1.240000000000000000e+02
3.816658258438110352e+00 -2.011402606964111328e+00 -4.735571444034576416e-01 1.400000000000000000e+01
3.473845005035400391e+00 -2.448024988174438477e+00 -4.653429687023162842e-01 1.200000000000000000e+01
3.445840120315551758e+00 -2.460073471069335938e+00 -4.633210003376007080e-01 2.100000000000000000e+01
3.511066913604736328e+00 -2.539293527603149414e+00 -4.759582281112670898e-01 1.400000000000000000e+01
3.392007827758789062e+00 -2.517172813415527344e+00 -4.620572924613952637e-01 1.000000000000000000e+01
3.812044620513916016e+00 2.825610637664794922e+00 -5.864384174346923828e-01 5.220000000000000000e+02
