# .PCD v.7 - Point Cloud Data file format
VERSION .7
FIELDS x y z intensity
SIZE 4 4 4 4
TYPE F F F F
COUNT 1 1 1 1
WIDTH 474
HEIGHT 1
VIEWPOINT 0 0 0 1 0 0 0
POINTS 474
DATA ascii
3.264734983444213867e+00 -1.204689368605613708e-01 1.566431075334548950e-01 7.610000000000000000e+02
3.270925521850585938e+00 -1.408000141382217407e-01 1.568202376365661621e-01 8.000000000000000000e+02
3.282980203628540039e+00 -1.615066230297088623e-01 1.571491956710815430e-01 8.250000000000000000e+02
3.274940490722656250e+00 -1.812604814767837524e-01 1.569720655679702759e-01 7.630000000000000000e+02
3.276759862899780273e+00 -2.015359997749328613e-01 1.570479720830917358e-01 8.200000000000000000e+02
3.282443523406982422e+00 -2.221108078956604004e-01 1.572251021862030029e-01 7.770000000000000000e+02
3.288994550704956055e+00 -2.428366094827651978e-01 1.574275493621826172e-01 7.760000000000000000e+02
3.290431976318359375e+00 -2.632522583007812500e-01 1.575034558773040771e-01 7.720000000000000000e+02
3.287758827209472656e+00 -2.833511233329772949e-01 1.574781537055969238e-01 7.800000000000000000e+02
3.289940118789672852e+00 -3.038870990276336670e-01 1.575793772935867310e-01 7.630000000000000000e+02
3.290003299713134766e+00 -3.242642879486083984e-01 1.576299816370010376e-01 7.540000000000000000e+02
3.285963058471679688e+00 -3.442368507385253906e-01 1.575793772935867310e-01 7.500000000000000000e+02
3.282795429229736328e+00 -3.642823398113250732e-01 1.575540602207183838e-01 6.710000000000000000e+02
3.285462856292724609e+00 -3.850003480911254883e-01 1.576805859804153442e-01 6.640000000000000000e+02
3.283038854598999023e+00 -4.051523208618164062e-01 1.576805859804153442e-01 5.310000000000000000e+02
3.240835905075073242e+00 -4.201460182666778564e-01 1.566684097051620483e-01 1.620000000000000000e+02
3.341216087341308594e+00 -4.540277719497680664e-01 1.593000888824462891e-01 6.000000000000000000e+01
3.763980150222778320e+00 -2.072066068649291992e+00 1.827068179845809937e-01 2.600000000000000000e+02
3.682247400283813477e+00 -2.056610107421875000e+00 1.807077527046203613e-01 1.100000000000000000e+01
3.631290197372436523e+00 -2.057480096817016602e+00 1.795943528413772583e-01 1.400000000000000000e+01
3.451368331909179688e+00 -2.245747327804565430e+00 1.781772971153259277e-01 1.100000000000000000e+01
3.365754127502441406e+00 -2.219549417495727539e+00 1.760011017322540283e-01 1.700000000000000000e+01
3.367863416671752930e+00 -2.250713825225830078e+00 1.764818876981735229e-01 1.400000000000000000e+01
3.255882501602172852e+00 2.186068445444107056e-01 1.457667052745819092e-01 1.410000000000000000e+02
3.288097620010375977e+00 2.005130052566528320e-01 1.464483737945556641e-01 1.690000000000000000e+02
3.269300937652587891e+00 1.792382746934890747e-01 1.460085958242416382e-01 6.150000000000000000e+02
3.277329206466674805e+00 1.595154106616973877e-01 1.461625099182128906e-01 7.160000000000000000e+02
3.279244899749755859e+00 1.394456177949905396e-01 1.461845040321350098e-01 8.140000000000000000e+02
3.277041673660278320e+00 1.192127391695976257e-01 1.461185365915298462e-01 7.920000000000000000e+02
3.287704467773437500e+00 9.940558671951293945e-02 1.463384330272674561e-01 8.780000000000000000e+02
3.277258396148681641e+00 7.896529138088226318e-02 1.460965424776077271e-01 8.090000000000000000e+02
3.271683454513549805e+00 5.874693393707275391e-02 1.459646075963973999e-01 7.960000000000000000e+02
3.273981809616088867e+00 3.869488462805747986e-02 1.460085958242416382e-01 8.700000000000000000e+02
3.279156446456909180e+00 1.863403618335723877e-02 1.461185365915298462e-01 9.260000000000000000e+02
3.276209592819213867e+00 -1.485629356466233730e-03 1.460525691509246826e-01 8.750000000000000000e+02
3.286136150360107422e+00 -2.165342494845390320e-02 1.462724655866622925e-01 9.330000000000000000e+02
3.282942533493041992e+00 -4.177835583686828613e-02 1.462064981460571289e-01 9.110000000000000000e+02
3.283623933792114258e+00 -6.194012984633445740e-02 1.462284773588180542e-01 8.790000000000000000e+02
3.278184890747070312e+00 -8.196220546960830688e-02 1.461185365915298462e-01 9.390000000000000000e+02
3.283615827560424805e+00 -1.022616550326347351e-01 1.462504714727401733e-01 9.280000000000000000e+02
3.295914411544799805e+00 -1.228912398219108582e-01 1.465363353490829468e-01 1.037000000000000000e+03
3.277119636535644531e+00 -1.423323154449462891e-01 1.461405307054519653e-01 9.070000000000000000e+02
3.291162490844726562e+00 -1.631795465946197510e-01 1.464703679084777832e-01 9.360000000000000000e+02
3.294092178344726562e+00 -1.835930049419403076e-01 1.465583294630050659e-01 9.330000000000000000e+02
3.288912296295166016e+00 -2.035548835992813110e-01 1.464703679084777832e-01 9.400000000000000000e+02
3.286603927612304688e+00 -2.236636132001876831e-01 1.464483737945556641e-01 9.320000000000000000e+02
3.298130989074707031e+00 -2.447869628667831421e-01 1.467342376708984375e-01 9.470000000000000000e+02
3.296566963195800781e+00 -2.650192975997924805e-01 1.467342376708984375e-01 8.830000000000000000e+02
3.289898395538330078e+00 -2.848107814788818359e-01 1.466242969036102295e-01 8.720000000000000000e+02
3.299039363861083984e+00 -3.060070276260375977e-01 1.468661725521087646e-01 8.700000000000000000e+02
3.300084352493286133e+00 -3.265389800071716309e-01 1.469321399927139282e-01 8.700000000000000000e+02
3.301995754241943359e+00 -3.471997678279876709e-01 1.470201015472412109e-01 8.860000000000000000e+02
3.289866924285888672e+00 -3.663479089736938477e-01 1.468002051115036011e-01 7.850000000000000000e+02
3.284578561782836914e+00 -3.861771821975708008e-01 1.467342376708984375e-01 6.800000000000000000e+02
3.296037673950195312e+00 -4.080426692962646484e-01 1.470420956611633301e-01 5.470000000000000000e+02
3.237952470779418945e+00 -4.210425317287445068e-01 1.458106786012649536e-01 1.410000000000000000e+02
3.334368944168090820e+00 -4.543971121311187744e-01 1.480096280574798584e-01 5.900000000000000000e+01
3.664594888687133789e+00 -1.989872574806213379e+00 1.657110750675201416e-01 1.370000000000000000e+02
3.760022878646850586e+00 -2.071658372879028320e+00 1.684157699346542358e-01 1.450000000000000000e+02
3.616337537765502930e+00 -2.021522760391235352e+00 1.651173532009124756e-01 1.200000000000000000e+01
3.603865623474121094e+00 -2.043674230575561523e+00 1.651173532009124756e-01 1.300000000000000000e+01
3.544836521148681641e+00 -2.068098545074462891e+00 1.642597764730453491e-01 1.400000000000000000e+01
3.290671348571777344e+00 -2.085849285125732422e+00 1.596859842538833618e-01 1.600000000000000000e+01
3.284539937973022461e+00 -2.110324144363403320e+00 1.598618924617767334e-01 1.700000000000000000e+01
3.339391231536865234e+00 -2.174625873565673828e+00 1.616430282592773438e-01 1.200000000000000000e+01
3.379768371582031250e+00 -2.260459184646606445e+00 1.634241789579391479e-01 1.500000000000000000e+01
3.995758533477783203e+00 -2.890788793563842773e+00 1.824669688940048218e-01 2.900000000000000000e+01
3.677368879318237305e+00 -2.764985084533691406e+00 1.751884967088699341e-01 2.800000000000000000e+01
3.267129421234130859e+00 2.180972695350646973e-01 1.363343447446823120e-01 1.560000000000000000e+02
3.281379938125610352e+00 1.988345533609390259e-01 1.365816444158554077e-01 1.830000000000000000e+02
3.274551630020141602e+00 1.782606393098831177e-01 1.364294588565826416e-01 6.540000000000000000e+02
3.279578208923339844e+00 1.583585143089294434e-01 1.365055441856384277e-01 6.800000000000000000e+02
3.277491331100463867e+00 1.381056755781173706e-01 1.364484727382659912e-01 7.260000000000000000e+02
3.270283699035644531e+00 1.177038624882698059e-01 1.362962871789932251e-01 7.130000000000000000e+02
3.279938697814941406e+00 9.790540486574172974e-02 1.364675015211105347e-01 7.750000000000000000e+02
3.277479171752929688e+00 7.770668715238571167e-02 1.364104300737380981e-01 7.870000000000000000e+02
3.267897605895996094e+00 5.741782486438751221e-02 1.362202018499374390e-01 7.660000000000000000e+02
3.265189170837402344e+00 3.733055293560028076e-02 1.361631304025650024e-01 7.400000000000000000e+02
3.269356012344360352e+00 1.731681823730468750e-02 1.362392306327819824e-01 7.340000000000000000e+02
3.268400907516479492e+00 -2.743211807683110237e-03 1.362202018499374390e-01 7.680000000000000000e+02
3.280320167541503906e+00 -2.287955395877361298e-02 1.364484727382659912e-01 8.120000000000000000e+02
3.290115356445312500e+00 -4.313635081052780151e-02 1.366387009620666504e-01 7.670000000000000000e+02
3.294786930084228516e+00 -6.341876089572906494e-02 1.367338150739669800e-01 7.630000000000000000e+02
3.290337562561035156e+00 -8.353310078382492065e-02 1.366577297449111938e-01 8.010000000000000000e+02
3.284766435623168945e+00 -1.035638824105262756e-01 1.365626156330108643e-01 8.060000000000000000e+02
3.269082546234130859e+00 -1.231545731425285339e-01 1.362772732973098755e-01 8.140000000000000000e+02
3.281250476837158203e+00 -1.437779814004898071e-01 1.365245729684829712e-01 8.350000000000000000e+02
3.293288230895996094e+00 -1.645553410053253174e-01 1.367718726396560669e-01 7.500000000000000000e+02
3.299204349517822266e+00 -1.851505786180496216e-01 1.369050294160842896e-01 7.930000000000000000e+02
3.309980869293212891e+00 -2.061345726251602173e-01 1.371333003044128418e-01 7.950000000000000000e+02
3.297681331634521484e+00 -2.256910651922225952e-01 1.369240432977676392e-01 7.030000000000000000e+02
3.283272504806518555e+00 -2.449559420347213745e-01 1.366767585277557373e-01 7.090000000000000000e+02
3.277721405029296875e+00 -2.647756934165954590e-01 1.366006582975387573e-01 7.400000000000000000e+02
3.278027296066284180e+00 -2.850553691387176514e-01 1.366387009620666504e-01 6.790000000000000000e+02
3.284180641174316406e+00 -3.059042096138000488e-01 1.367908865213394165e-01 6.480000000000000000e+02
3.293186187744140625e+00 -3.271353244781494141e-01 1.370001435279846191e-01 6.410000000000000000e+02
3.291116952896118164e+00 -3.473357558250427246e-01 1.370001435279846191e-01 6.490000000000000000e+02
3.292898416519165039e+00 -3.679666817188262939e-01 1.370762288570404053e-01 5.710000000000000000e+02
3.304479837417602539e+00 -3.898023366928100586e-01 1.373425573110580444e-01 5.340000000000000000e+02
3.258368492126464844e+00 -4.046557843685150146e-01 1.365055441856384277e-01 3.290000000000000000e+02
3.706255435943603516e+00 -2.014233350753784180e+00 1.542920023202896118e-01 2.700000000000000000e+02
3.692950963973999023e+00 -2.036453723907470703e+00 1.542729735374450684e-01 3.200000000000000000e+01
3.643736839294433594e+00 -2.038576364517211914e+00 1.534740030765533447e-01 1.700000000000000000e+01
3.581418752670288086e+00 -2.091187238693237305e+00 1.529413610696792603e-01 1.600000000000000000e+01
3.557335376739501953e+00 -2.106501817703247070e+00 1.526940613985061646e-01 1.700000000000000000e+01
3.297752857208251953e+00 -2.063777923583984375e+00 1.480524688959121704e-01 2.000000000000000000e+01
3.294315338134765625e+00 -2.089863777160644531e+00 1.482617259025573730e-01 1.700000000000000000e+01
3.868663072586059570e+00 -2.764911413192749023e+00 1.645073145627975464e-01 3.100000000000000000e+01
3.930995941162109375e+00 -2.846049547195434570e+00 1.663715690374374390e-01 3.100000000000000000e+01
3.518792867660522461e+00 -2.681711912155151367e+00 1.582107245922088623e-01 1.425000000000000000e+03
3.495147943496704102e+00 -2.697755098342895508e+00 1.580395102500915527e-01 1.427000000000000000e+03
3.230554580688476562e+00 1.801819503307342529e-01 1.260333508253097534e-01 2.930000000000000000e+02
3.271545410156250000e+00 1.623322069644927979e-01 1.266756057739257812e-01 4.010000000000000000e+02
3.255497932434082031e+00 1.415197253227233887e-01 1.264026463031768799e-01 5.300000000000000000e+02
3.234323024749755859e+00 1.207246184349060059e-01 1.260493993759155273e-01 5.530000000000000000e+02
3.256989479064941406e+00 1.015591025352478027e-01 1.264026463031768799e-01 5.810000000000000000e+02
3.258550882339477539e+00 8.159755915403366089e-02 1.264186948537826538e-01 5.620000000000000000e+02
3.267987489700317383e+00 6.177061051130294800e-02 1.265632063150405884e-01 5.680000000000000000e+02
3.277303218841552734e+00 4.183092713356018066e-02 1.267077177762985229e-01 5.840000000000000000e+02
3.285496950149536133e+00 2.177277021110057831e-02 1.268361657857894897e-01 6.090000000000000000e+02
3.280569314956665039e+00 1.611239742487668991e-03 1.267558783292770386e-01 6.710000000000000000e+02
3.277517795562744141e+00 -1.850059442222118378e-02 1.267077177762985229e-01 6.520000000000000000e+02
3.279342174530029297e+00 -3.863458335399627686e-02 1.267398297786712646e-01 6.510000000000000000e+02
3.268046617507934570e+00 -5.855679139494895935e-02 1.265632063150405884e-01 6.340000000000000000e+02
3.277621746063232422e+00 -7.885004580020904541e-02 1.267237663269042969e-01 6.720000000000000000e+02
3.279074907302856445e+00 -9.902033954858779907e-02 1.267558783292770386e-01 6.740000000000000000e+02
3.286399364471435547e+00 -1.194302141666412354e-01 1.268843263387680054e-01 6.960000000000000000e+02
3.285604715347290039e+00 -1.395929306745529175e-01 1.268843263387680054e-01 6.930000000000000000e+02
3.289679765701293945e+00 -1.599940210580825806e-01 1.269646137952804565e-01 7.460000000000000000e+02
3.296622991561889648e+00 -1.806149035692214966e-01 1.270930618047714233e-01 7.390000000000000000e+02
3.300442695617675781e+00 -2.011440694332122803e-01 1.271733492612838745e-01 7.600000000000000000e+02
3.286177396774291992e+00 -2.205191552639007568e-01 1.269646137952804565e-01 6.800000000000000000e+02
3.286756753921508789e+00 -2.408250421285629272e-01 1.269967257976531982e-01 7.180000000000000000e+02
3.285217285156250000e+00 -2.609876692295074463e-01 1.269967257976531982e-01 7.400000000000000000e+02
3.288535118103027344e+00 -2.815677225589752197e-01 1.270770132541656494e-01 7.250000000000000000e+02
3.290728092193603516e+00 -3.021067380905151367e-01 1.271412372589111328e-01 7.220000000000000000e+02
3.299758434295654297e+00 -3.233669102191925049e-01 1.273178458213806152e-01 7.010000000000000000e+02
3.294728755950927734e+00 -3.432964682579040527e-01 1.272696852684020996e-01 7.550000000000000000e+02
3.298523187637329102e+00 -3.641653060913085938e-01 1.273660212755203247e-01 7.000000000000000000e+02
3.294240474700927734e+00 -3.841658830642700195e-01 1.273339092731475830e-01 6.900000000000000000e+02
3.283882141113281250e+00 -4.033952355384826660e-01 1.272054612636566162e-01 5.830000000000000000e+02
3.245646715164184570e+00 -4.189239144325256348e-01 1.266274303197860718e-01 1.260000000000000000e+02
3.337142944335937500e+00 -4.515826106071472168e-01 1.281527876853942871e-01 7.200000000000000000e+01
3.708986997604370117e+00 -2.009657859802246094e+00 1.418167203664779663e-01 2.090000000000000000e+02
3.705347537994384766e+00 -2.037196159362792969e+00 1.419772952795028687e-01 3.900000000000000000e+01
3.722464799880981445e+00 -2.076457977294921875e+00 1.425231993198394775e-01 1.400000000000000000e+01
3.574289083480834961e+00 -2.170025587081909180e+00 1.412226408720016479e-01 2.000000000000000000e+01
3.318284511566162109e+00 -2.099114894866943359e+00 1.371282786130905151e-01 1.000000000000000000e+01
3.232120513916015625e+00 -2.072471857070922852e+00 1.357313692569732666e-01 1.300000000000000000e+01
3.246168851852416992e+00 -2.109703779220581055e+00 1.362451761960983276e-01 1.000000000000000000e+01
3.297051906585693359e+00 -2.230171442031860352e+00 1.379953175783157349e-01 2.500000000000000000e+01
3.427623748779296875e+00 -2.349301338195800781e+00 1.408051848411560059e-01 2.100000000000000000e+01
3.482124090194702148e+00 -2.418204784393310547e+00 1.421539038419723511e-01 3.100000000000000000e+01
3.826997518539428711e+00 -2.692726373672485352e+00 1.492186933755874634e-01 2.600000000000000000e+01
3.897514820098876953e+00 -2.778267383575439453e+00 1.509367227554321289e-01 2.800000000000000000e+01
3.964691638946533203e+00 -2.863016366958618164e+00 1.526065915822982788e-01 2.600000000000000000e+01
3.361970424652099609e+00 -2.523123741149902344e+00 1.415758877992630005e-01 1.400000000000000000e+01
3.453877210617065430e+00 -2.625401973724365234e+00 1.437434852123260498e-01 1.033000000000000000e+03
3.491573333740234375e+00 -2.688027620315551758e+00 1.448353230953216553e-01 1.423000000000000000e+03
3.421399354934692383e+00 -2.667588710784912109e+00 1.437434852123260498e-01 8.490000000000000000e+02
3.149950742721557617e+00 -2.487125396728515625e+00 1.385251730680465698e-01 3.300000000000000000e+01
3.252836942672729492e+00 -2.633831501007080078e+00 1.412868648767471313e-01 4.120000000000000000e+02
3.288096189498901367e+00 -2.904813051223754883e+00 1.445302516222000122e-01 6.620000000000000000e+02
3.269465446472167969e+00 -2.924267053604125977e+00 1.445141881704330444e-01 4.880000000000000000e+02
3.264292716979980469e+00 2.204365581274032593e-01 1.163763925433158875e-01 9.300000000000000000e+01
3.232648372650146484e+00 1.983836293220520020e-01 1.159501969814300537e-01 1.110000000000000000e+02
3.263756752014160156e+00 1.801968663930892944e-01 1.163376495242118835e-01 3.860000000000000000e+02
3.257809877395629883e+00 1.598248332738876343e-01 1.162472441792488098e-01 5.550000000000000000e+02
3.258729219436645508e+00 1.398322731256484985e-01 1.162472441792488098e-01 6.180000000000000000e+02
3.254529714584350586e+00 1.196510344743728638e-01 1.161826699972152710e-01 6.490000000000000000e+02
3.270194292068481445e+00 1.001376435160636902e-01 1.163763925433158875e-01 6.840000000000000000e+02
3.266748666763305664e+00 7.997255027294158936e-02 1.163247376680374146e-01 6.610000000000000000e+02
3.270177125930786133e+00 5.998150259256362915e-02 1.163634806871414185e-01 6.630000000000000000e+02
3.283481597900390625e+00 4.007290303707122803e-02 1.165313795208930969e-01 6.910000000000000000e+02
3.282665967941284180e+00 1.991906762123107910e-02 1.165184602141380310e-01 7.230000000000000000e+02
3.287725925445556641e+00 -2.239666791865602136e-04 1.165830343961715698e-01 7.670000000000000000e+02
3.280663251876831055e+00 -2.035328187048435211e-02 1.164926290512084961e-01 7.450000000000000000e+02
3.280476570129394531e+00 -4.048267006874084473e-02 1.164926290512084961e-01 7.890000000000000000e+02
3.283165693283081055e+00 -6.066611036658287048e-02 1.165313795208930969e-01 7.850000000000000000e+02
3.285730600357055664e+00 -8.088406920433044434e-02 1.165701225399971008e-01 7.530000000000000000e+02
3.285172462463378906e+00 -1.010434105992317200e-01 1.165701225399971008e-01 7.840000000000000000e+02
3.290485858917236328e+00 -1.214204952120780945e-01 1.166476160287857056e-01 8.310000000000000000e+02
3.280688047409057617e+00 -1.412207633256912231e-01 1.165313795208930969e-01 7.900000000000000000e+02
3.281757354736328125e+00 -1.614463925361633301e-01 1.165572106838226318e-01 7.960000000000000000e+02
3.287693500518798828e+00 -1.819670051336288452e-01 1.166476160287857056e-01 8.310000000000000000e+02
3.293501377105712891e+00 -2.025665342807769775e-01 1.167380213737487793e-01 8.350000000000000000e+02
3.300177574157714844e+00 -2.233117371797561646e-01 1.168413385748863220e-01 8.190000000000000000e+02
3.292762041091918945e+00 -2.431149780750274658e-01 1.167638450860977173e-01 8.270000000000000000e+02
3.294198513031005859e+00 -2.635537981986999512e-01 1.168025955557823181e-01 8.470000000000000000e+02
3.297500371932983398e+00 -2.841911911964416504e-01 1.168671697378158569e-01 7.790000000000000000e+02
3.298681497573852539e+00 -3.046949803829193115e-01 1.169059127569198608e-01 7.720000000000000000e+02
3.290779352188110352e+00 -3.243408203125000000e-01 1.168284267187118530e-01 8.250000000000000000e+02
3.299666404724121094e+00 -3.456731140613555908e-01 1.169704869389533997e-01 7.830000000000000000e+02
3.299470901489257812e+00 -3.661336302757263184e-01 1.169963181018829346e-01 7.090000000000000000e+02
3.289217233657836914e+00 -3.854404985904693604e-01 1.168930009007453918e-01 6.280000000000000000e+02
3.278851270675659180e+00 -4.046353399753570557e-01 1.167896762490272522e-01 5.620000000000000000e+02
3.262424230575561523e+00 -4.229458868503570557e-01 1.166088655591011047e-01 1.540000000000000000e+02
3.333087205886840820e+00 -4.529227316379547119e-01 1.175645813345909119e-01 6.200000000000000000e+01
3.708083391189575195e+00 -2.011743307113647461e+00 1.286069750785827637e-01 3.390000000000000000e+02
3.692165851593017578e+00 -2.032528877258300781e+00 1.285553127527236938e-01 2.100000000000000000e+01
3.719781398773193359e+00 -2.077575445175170898e+00 1.291494071483612061e-01 1.400000000000000000e+01
3.475887060165405273e+00 -2.112835407257080078e+00 1.266568005084991455e-01 1.800000000000000000e+01
3.265643119812011719e+00 -2.096478939056396484e+00 1.242416799068450928e-01 9.000000000000000000e+00
3.246851205825805664e+00 -2.112659454345703125e+00 1.241512745618820190e-01 1.100000000000000000e+01
3.279736995697021484e+00 -2.162820339202880859e+00 1.248616054654121399e-01 1.100000000000000000e+01
3.376140594482421875e+00 -2.256245851516723633e+00 1.265663951635360718e-01 4.600000000000000000e+01
3.372167825698852539e+00 -2.283647537231445312e+00 1.267213672399520874e-01 8.300000000000000000e+01
3.370459079742431641e+00 -2.312782526016235352e+00 1.269150972366333008e-01 3.400000000000000000e+01
3.434196233749389648e+00 -2.387648820877075195e+00 1.281420290470123291e-01 6.400000000000000000e+01
3.426020860671997070e+00 -2.413282632827758789e+00 1.282453536987304688e-01 4.800000000000000000e+01
3.540558576583862305e+00 -2.526616096496582031e+00 1.302988529205322266e-01 1.900000000000000000e+01
3.691914796829223633e+00 -2.668977260589599609e+00 1.329593509435653687e-01 3.000000000000000000e+01
3.220079660415649414e+00 -2.419331550598144531e+00 1.261401921510696411e-01 1.800000000000000000e+01
3.452636480331420898e+00 -2.627372026443481445e+00 1.301567852497100830e-01 1.051000000000000000e+03
3.480008363723754883e+00 -2.682080984115600586e+00 1.308671087026596069e-01 1.337000000000000000e+03
3.390688419342041016e+00 -2.783126354217529297e+00 1.307767033576965332e-01 3.350000000000000000e+02
3.945006132125854492e+00 2.704039096832275391e+00 1.209090426564216614e-01 1.430000000000000000e+02
3.246534824371337891e+00 2.179787456989288330e-01 1.059650778770446777e-01 1.400000000000000000e+02
3.217868328094482422e+00 1.962268352508544922e-01 1.056718677282333374e-01 1.420000000000000000e+02
3.252959012985229492e+00 1.783415228128433228e-01 1.060041710734367371e-01 5.800000000000000000e+02
3.264978408813476562e+00 1.589136570692062378e-01 1.061116829514503479e-01 6.480000000000000000e+02
3.268889188766479492e+00 1.390047371387481689e-01 1.061410009860992432e-01 7.670000000000000000e+02
3.266682863235473633e+00 1.188353896141052246e-01 1.061116829514503479e-01 8.100000000000000000e+02
3.264351844787597656e+00 9.869835525751113892e-02 1.060823574662208557e-01 7.840000000000000000e+02
3.264896154403686523e+00 7.866680622100830078e-02 1.060823574662208557e-01 8.360000000000000000e+02
3.259318590164184570e+00 5.852428823709487915e-02 1.060237213969230652e-01 8.790000000000000000e+02
3.263615846633911133e+00 3.857185319066047668e-02 1.060628145933151245e-01 8.730000000000000000e+02
3.273790359497070312e+00 1.860327646136283875e-02 1.061605513095855713e-01 8.610000000000000000e+02
3.278842687606811523e+00 -1.486692111939191818e-03 1.062094196677207947e-01 8.700000000000000000e+02
3.274772167205810547e+00 -2.157910913228988647e-02 1.061703264713287354e-01 9.010000000000000000e+02
3.277577638626098633e+00 -4.171035066246986389e-02 1.061996445059776306e-01 8.890000000000000000e+02
3.297255516052246094e+00 -6.219659000635147095e-02 1.063951179385185242e-01 9.660000000000000000e+02
3.285815954208374023e+00 -8.215261995792388916e-02 1.062876060605049133e-01 9.130000000000000000e+02
3.288248300552368164e+00 -1.024056896567344666e-01 1.063169315457344055e-01 9.580000000000000000e+02
3.287558078765869141e+00 -1.225800737738609314e-01 1.063169315457344055e-01 9.340000000000000000e+02
3.282747983932495117e+00 -1.425764858722686768e-01 1.062778308987617493e-01 9.590000000000000000e+02
3.281811475753784180e+00 -1.627163738012313843e-01 1.062778308987617493e-01 8.930000000000000000e+02
3.286741733551025391e+00 -1.831836998462677002e-01 1.063364744186401367e-01 8.940000000000000000e+02
3.297532320022583008e+00 -2.040879577398300171e-01 1.064537614583969116e-01 9.100000000000000000e+02
3.306194543838500977e+00 -2.249958366155624390e-01 1.065514981746673584e-01 9.240000000000000000e+02
3.298768281936645508e+00 -2.448342442512512207e-01 1.064928546547889709e-01 8.640000000000000000e+02
3.294213771820068359e+00 -2.648302614688873291e-01 1.064635366201400757e-01 9.440000000000000000e+02
3.301492929458618164e+00 -2.858139276504516602e-01 1.065514981746673584e-01 8.400000000000000000e+02
3.301668405532836914e+00 -3.062507510185241699e-01 1.065710410475730896e-01 8.520000000000000000e+02
3.291766405105590820e+00 -3.257163166999816895e-01 1.064928546547889709e-01 8.250000000000000000e+02
3.297661542892456055e+00 -3.467442393302917480e-01 1.065710410475730896e-01 8.550000000000000000e+02
3.296465635299682617e+00 -3.670824170112609863e-01 1.065808162093162537e-01 7.580000000000000000e+02
3.290178775787353516e+00 -3.868353664875030518e-01 1.065417230129241943e-01 6.670000000000000000e+02
3.285758495330810547e+00 -4.067706465721130371e-01 1.065221726894378662e-01 6.230000000000000000e+02
3.283200740814208984e+00 -4.269240200519561768e-01 1.065221726894378662e-01 1.920000000000000000e+02
3.325105428695678711e+00 -4.531351625919342041e-01 1.069619953632354736e-01 8.500000000000000000e+01
3.739120960235595703e+00 -2.030336618423461914e+00 1.157485395669937134e-01 4.330000000000000000e+02
3.515785694122314453e+00 -1.965319871902465820e+00 1.135299131274223328e-01 1.000000000000000000e+01
3.643987178802490234e+00 -2.125938892364501953e+00 1.153966858983039856e-01 2.100000000000000000e+01
3.941689729690551758e+00 -2.397924661636352539e+00 1.192572936415672302e-01 1.900000000000000000e+01
3.233030557632446289e+00 -2.049315929412841797e+00 1.115751713514328003e-01 1.000000000000000000e+01
3.268349170684814453e+00 -2.099922418594360352e+00 1.121322736144065857e-01 1.300000000000000000e+01
3.293111085891723633e+00 -2.144490957260131836e+00 1.125720888376235962e-01 1.600000000000000000e+01
3.359177827835083008e+00 -2.216979742050170898e+00 1.135005876421928406e-01 5.800000000000000000e+01
3.359642028808593750e+00 -2.246999502182006836e+00 1.136667430400848389e-01 5.900000000000000000e+01
3.367313623428344727e+00 -2.282156705856323242e+00 1.139208599925041199e-01 3.900000000000000000e+01
3.353247165679931641e+00 -2.302775144577026367e+00 1.139208599925041199e-01 1.060000000000000000e+02
3.438867092132568359e+00 -2.455923557281494141e+00 1.154650971293449402e-01 6.600000000000000000e+01
3.360232830047607422e+00 -2.725797653198242188e+00 1.164522469043731689e-01 6.660000000000000000e+02
3.237744331359863281e+00 2.155659794807434082e-01 9.685411304235458374e-02 1.940000000000000000e+02
3.232018947601318359e+00 1.952722817659378052e-01 9.680524468421936035e-02 2.110000000000000000e+02
3.261114358901977539e+00 1.769586503505706787e-01 9.700071811676025391e-02 6.650000000000000000e+02
3.274124383926391602e+00 1.575239598751068115e-01 9.708449244499206543e-02 7.410000000000000000e+02
3.269034862518310547e+00 1.371788978576660156e-01 9.704260528087615967e-02 7.300000000000000000e+02
3.262819766998291016e+00 1.168662756681442261e-01 9.699373692274093628e-02 7.430000000000000000e+02
3.262475728988647461e+00 9.681397676467895508e-02 9.698675572872161865e-02 7.770000000000000000e+02
3.261008977890014648e+00 7.674662023782730103e-02 9.697279334068298340e-02 8.130000000000000000e+02
3.261418581008911133e+00 5.673599988222122192e-02 9.697279334068298340e-02 7.650000000000000000e+02
3.262705087661743164e+00 3.673465549945831299e-02 9.697977453470230103e-02 7.770000000000000000e+02
3.264868974685668945e+00 1.672492735087871552e-02 9.699373692274093628e-02 8.290000000000000000e+02
3.256910324096679688e+00 -3.301353426650166512e-03 9.693788737058639526e-02 7.630000000000000000e+02
3.257828712463378906e+00 -2.329231612384319305e-02 9.694486856460571289e-02 8.130000000000000000e+02
3.262624025344848633e+00 -4.334720224142074585e-02 9.697977453470230103e-02 8.380000000000000000e+02
3.265295982360839844e+00 -6.342327594757080078e-02 9.700071811676025391e-02 8.490000000000000000e+02
3.281839370727539062e+00 -8.388939499855041504e-02 9.711939841508865356e-02 8.800000000000000000e+02
3.269269227981567383e+00 -1.036463826894760132e-01 9.703562408685684204e-02 7.840000000000000000e+02
3.278564453125000000e+00 -1.240809634327888489e-01 9.710543602705001831e-02 8.380000000000000000e+02
3.267751216888427734e+00 -1.437575370073318481e-01 9.703562408685684204e-02 7.700000000000000000e+02
3.267806291580200195e+00 -1.638552993535995483e-01 9.704260528087615967e-02 8.500000000000000000e+02
3.267737865447998047e+00 -1.839591562747955322e-01 9.704958647489547729e-02 7.930000000000000000e+02
3.259561300277709961e+00 -2.035709023475646973e-01 9.700071811676025391e-02 7.660000000000000000e+02
3.262241363525390625e+00 -2.238405644893646240e-01 9.702864289283752441e-02 7.340000000000000000e+02
3.275764465332031250e+00 -2.449694275856018066e-01 9.713336080312728882e-02 7.360000000000000000e+02
3.277189970016479492e+00 -2.653061449527740479e-01 9.715430438518524170e-02 7.200000000000000000e+02
3.276496648788452148e+00 -2.854962646961212158e-01 9.716128557920455933e-02 7.200000000000000000e+02
3.284639835357666016e+00 -3.065227270126342773e-01 9.723110496997833252e-02 7.080000000000000000e+02
3.294637918472290039e+00 -3.278576135635375977e-01 9.731487929821014404e-02 7.070000000000000000e+02
3.285603046417236328e+00 -3.473321199417114258e-01 9.726601094007492065e-02 7.180000000000000000e+02
3.296329259872436523e+00 -3.689296543598175049e-01 9.735676646232604980e-02 6.140000000000000000e+02
3.299962043762207031e+00 -3.898516297340393066e-01 9.739865362644195557e-02 5.290000000000000000e+02
3.234989881515502930e+00 -4.023269116878509521e-01 9.695883095264434814e-02 3.690000000000000000e+02
3.572450876235961914e+00 -1.914035916328430176e+00 1.024949699640274048e-01 8.100000000000000000e+01
3.691547632217407227e+00 -2.007074356079101562e+00 1.035351827740669250e-01 3.060000000000000000e+02
3.694924354553222656e+00 -2.038380146026611328e+00 1.036608442664146423e-01 2.400000000000000000e+01
3.704164028167724609e+00 -2.073220491409301758e+00 1.038353741168975830e-01 2.800000000000000000e+01
3.414955139160156250e+00 -1.994812488555908203e+00 1.018108054995536804e-01 1.400000000000000000e+01
3.554082632064819336e+00 -2.105411052703857422e+00 1.030395105481147766e-01 1.600000000000000000e+01
3.470801353454589844e+00 -2.084962844848632812e+00 1.024670451879501343e-01 1.600000000000000000e+01
3.309331417083740234e+00 -2.015726327896118164e+00 1.012523099780082703e-01 1.300000000000000000e+01
3.304598331451416016e+00 -2.097191572189331055e+00 1.015245765447616577e-01 2.000000000000000000e+01
3.234475374221801758e+00 -2.080648660659790039e+00 1.010498479008674622e-01 1.200000000000000000e+01
3.248811483383178711e+00 -2.175433635711669922e+00 1.014966517686843872e-01 1.600000000000000000e+02
3.361188411712646484e+00 -2.280653953552246094e+00 1.025578007102012634e-01 1.000000000000000000e+02
3.498197793960571289e+00 -2.666982173919677734e+00 1.049104854464530945e-01 1.441000000000000000e+03
3.230945587158203125e+00 1.802036911249160767e-01 8.666847646236419678e-02 2.940000000000000000e+02
3.227995395660400391e+00 1.601779758930206299e-01 8.665311336517333984e-02 4.380000000000000000e+02
3.220925092697143555e+00 1.400221437215805054e-01 8.662240207195281982e-02 5.720000000000000000e+02
3.228718757629394531e+00 1.205163002014160156e-01 8.664927631616592407e-02 6.030000000000000000e+02
3.200411558151245117e+00 9.980361908674240112e-02 8.653792738914489746e-02 5.770000000000000000e+02
3.237951993942260742e+00 8.108491450548171997e-02 8.667999505996704102e-02 5.970000000000000000e+02
3.258384943008422852e+00 6.159057840704917908e-02 8.675678819417953491e-02 6.740000000000000000e+02
3.256701707839965820e+00 4.157112911343574524e-02 8.674910664558410645e-02 6.610000000000000000e+02
3.258895397186279297e+00 2.160054817795753479e-02 8.675678819417953491e-02 6.090000000000000000e+02
3.252966642379760742e+00 1.601905678398907185e-03 8.673375099897384644e-02 6.790000000000000000e+02
3.250915288925170898e+00 -1.834635622799396515e-02 8.672606945037841797e-02 7.010000000000000000e+02
3.262740612030029297e+00 -3.843645378947257996e-02 8.677215129137039185e-02 7.080000000000000000e+02
3.268442153930664062e+00 -5.856394022703170776e-02 8.679518848657608032e-02 7.010000000000000000e+02
3.266021966934204102e+00 -7.856921851634979248e-02 8.678750693798065186e-02 7.400000000000000000e+02
3.264478921890258789e+00 -9.857733547687530518e-02 8.678366988897323608e-02 6.890000000000000000e+02
3.272806406021118164e+00 -1.189341619610786438e-01 8.681822568178176880e-02 8.000000000000000000e+02
3.271016120910644531e+00 -1.389708966016769409e-01 8.681438118219375610e-02 7.530000000000000000e+02
3.268104076385498047e+00 -1.589413881301879883e-01 8.680670708417892456e-02 8.030000000000000000e+02
3.268065929412841797e+00 -1.790459603071212769e-01 8.681054413318634033e-02 8.230000000000000000e+02
3.268902063369750977e+00 -1.992170363664627075e-01 8.681822568178176880e-02 7.350000000000000000e+02
3.276597738265991211e+00 -2.198748439550399780e-01 8.685278147459030151e-02 7.880000000000000000e+02
3.282168149948120117e+00 -2.404881268739700317e-01 8.687966316938400269e-02 7.920000000000000000e+02
3.282624483108520508e+00 -2.607812881469726562e-01 8.688733726739883423e-02 8.060000000000000000e+02
3.280962467193603516e+00 -2.809181809425354004e-01 8.688733726739883423e-02 7.940000000000000000e+02
3.288139104843139648e+00 -3.018686473369598389e-01 8.692189306020736694e-02 7.730000000000000000e+02
3.292196273803710938e+00 -3.226246833801269531e-01 8.694493770599365234e-02 7.950000000000000000e+02
3.281203269958496094e+00 -3.418850898742675781e-01 8.691037446260452271e-02 7.840000000000000000e+02
3.271092414855957031e+00 -3.611326515674591064e-01 8.687966316938400269e-02 7.690000000000000000e+02
3.270801305770874023e+00 -3.814288675785064697e-01 8.688733726739883423e-02 7.460000000000000000e+02
3.274354457855224609e+00 -4.022233784198760986e-01 8.691037446260452271e-02 6.540000000000000000e+02
3.236122131347656250e+00 -4.176930487155914307e-01 8.677215129137039185e-02 1.630000000000000000e+02
3.272144794464111328e+00 -4.427772164344787598e-01 8.692189306020736694e-02 1.040000000000000000e+02
3.854114055633544922e+00 -1.997430920600891113e+00 9.091135859489440918e-02 2.640000000000000000e+02
3.585859775543212891e+00 -1.914554238319396973e+00 8.985159546136856079e-02 8.000000000000000000e+01
3.695369720458984375e+00 -2.002277374267578125e+00 9.038148075342178345e-02 2.970000000000000000e+02
3.658480167388916016e+00 -2.011421442031860352e+00 9.027396887540817261e-02 2.300000000000000000e+01
3.703704118728637695e+00 -2.065989971160888672e+00 9.052738547325134277e-02 1.900000000000000000e+01
3.457293272018432617e+00 -2.041332244873046875e+00 8.965961635112762451e-02 9.000000000000000000e+00
3.417452335357666016e+00 -2.074780941009521484e+00 8.959434181451797485e-02 1.600000000000000000e+01
3.292490482330322266e+00 -2.082793235778808594e+00 8.920268714427947998e-02 1.600000000000000000e+01
3.324260473251342773e+00 -2.131570100784301758e+00 8.940619230270385742e-02 2.600000000000000000e+01
3.389090299606323242e+00 -2.202615737915039062e+00 8.976328372955322266e-02 3.900000000000000000e+01
3.304533004760742188e+00 -2.176604747772216797e+00 8.943691104650497437e-02 2.100000000000000000e+01
3.317728281021118164e+00 -2.214609146118164062e+00 8.955977857112884521e-02 8.400000000000000000e+01
3.378617763519287109e+00 -2.285358667373657227e+00 8.990535140037536621e-02 9.800000000000000000e+01
3.358757972717285156e+00 -2.302088260650634766e+00 8.987847715616226196e-02 1.440000000000000000e+02
3.254227638244628906e+00 -2.259899139404296875e+00 8.945611119270324707e-02 3.100000000000000000e+01
3.266468524932861328e+00 -2.298240900039672852e+00 8.957897871732711792e-02 3.100000000000000000e+01
3.223612070083618164e+00 -2.357976675033569336e+00 8.957897871732711792e-02 3.600000000000000000e+01
3.126456022262573242e+00 -2.346328735351562500e+00 8.925260603427886963e-02 2.700000000000000000e+01
3.079704046249389648e+00 -2.431645870208740234e+00 8.931019902229309082e-02 3.300000000000000000e+01
3.074499130249023438e+00 -2.489395380020141602e+00 8.943306654691696167e-02 4.010000000000000000e+02
3.087775707244873047e+00 -2.531676054000854492e+00 8.957514166831970215e-02 7.640000000000000000e+02
3.260918378829956055e+00 -2.916620731353759766e+00 9.104190766811370850e-02 1.074000000000000000e+03
3.224615812301635742e+00 2.183222472667694092e-01 7.654275745153427124e-02 1.060000000000000000e+02
3.216911792755126953e+00 1.979798972606658936e-01 7.653646916151046753e-02 1.090000000000000000e+02
3.224056720733642578e+00 1.785690635442733765e-01 7.654065638780593872e-02 3.910000000000000000e+02
3.211108684539794922e+00 1.580955535173416138e-01 7.653088867664337158e-02 5.470000000000000000e+02
3.265968322753906250e+00 1.407111883163452148e-01 7.656858116388320923e-02 7.300000000000000000e+02
3.248782634735107422e+00 1.200054287910461426e-01 7.655601948499679565e-02 6.810000000000000000e+02
3.254455327987670898e+00 1.002226546406745911e-01 7.655950635671615601e-02 7.080000000000000000e+02
3.256008625030517578e+00 8.027640730142593384e-02 7.656020671129226685e-02 6.870000000000000000e+02
3.266438245773315430e+00 6.048101186752319336e-02 7.656718790531158447e-02 7.730000000000000000e+02
3.262748241424560547e+00 4.038808122277259827e-02 7.656439393758773804e-02 7.640000000000000000e+02
3.262934684753417969e+00 2.036747336387634277e-02 7.656439393758773804e-02 7.460000000000000000e+02
3.256998062133789062e+00 3.457720449659973383e-04 7.656020671129226685e-02 7.440000000000000000e+02
3.254939079284667969e+00 -1.962663605809211731e-02 7.655881345272064209e-02 7.710000000000000000e+02
3.265756607055664062e+00 -3.973258286714553833e-02 7.656648755073547363e-02 7.870000000000000000e+02
3.272449970245361328e+00 -5.989860743284225464e-02 7.657137513160705566e-02 7.950000000000000000e+02
3.271021127700805664e+00 -7.995236665010452271e-02 7.657068222761154175e-02 7.850000000000000000e+02
3.271468639373779297e+00 -1.000520959496498108e-01 7.657137513160705566e-02 8.090000000000000000e+02
3.272791624069213867e+00 -1.201970651745796204e-01 7.657277584075927734e-02 8.130000000000000000e+02
3.272991657257080078e+00 -1.403191685676574707e-01 7.657346874475479126e-02 8.290000000000000000e+02
3.274066686630249023e+00 -1.604972481727600098e-01 7.657486945390701294e-02 8.250000000000000000e+02
3.276015758514404297e+00 -1.807489395141601562e-01 7.657696306705474854e-02 8.350000000000000000e+02
3.278837442398071289e+00 -2.010918557643890381e-01 7.657975703477859497e-02 8.110000000000000000e+02
3.285523653030395508e+00 -2.217457592487335205e-01 7.658533751964569092e-02 8.670000000000000000e+02
3.284101247787475586e+00 -2.419011741876602173e-01 7.658533751964569092e-02 8.180000000000000000e+02
3.285545587539672852e+00 -2.622863650321960449e-01 7.658743113279342651e-02 8.050000000000000000e+02
3.288856029510498047e+00 -2.828698754310607910e-01 7.659092545509338379e-02 7.810000000000000000e+02
3.289049863815307617e+00 -3.032283186912536621e-01 7.659231871366500854e-02 8.010000000000000000e+02
3.288122653961181641e+00 -3.235017955303192139e-01 7.659301906824111938e-02 8.320000000000000000e+02
3.282097578048706055e+00 -3.432549834251403809e-01 7.659022510051727295e-02 7.500000000000000000e+02
3.278935670852661133e+00 -3.632769286632537842e-01 7.658953219652175903e-02 7.370000000000000000e+02
3.278631210327148438e+00 -3.836217820644378662e-01 7.659092545509338379e-02 7.070000000000000000e+02
3.281178236007690430e+00 -4.043436348438262939e-01 7.659441232681274414e-02 6.540000000000000000e+02
3.224091053009033203e+00 -4.174045324325561523e-01 7.655601948499679565e-02 1.580000000000000000e+02
3.253178358078002930e+00 -4.414841830730438232e-01 7.657835632562637329e-02 7.500000000000000000e+01
3.950020074844360352e+00 -1.987814784049987793e+00 7.737352699041366577e-02 2.900000000000000000e+02
3.960901021957397461e+00 -2.023845195770263672e+00 7.739168405532836914e-02 5.610000000000000000e+02
3.915564775466918945e+00 -2.031072378158569336e+00 7.736585289239883423e-02 6.680000000000000000e+02
3.795080184936523438e+00 -1.998216509819030762e+00 7.728067785501480103e-02 6.100000000000000000e+01
3.693797111511230469e+00 -2.003160238265991211e+00 7.721994072198867798e-02 2.360000000000000000e+02
3.596454858779907227e+00 -1.979019999504089355e+00 7.715222239494323730e-02 3.300000000000000000e+01
3.523125648498535156e+00 -1.966925024986267090e+00 7.710335403680801392e-02 2.900000000000000000e+01
3.549275636672973633e+00 -2.010190963745117188e+00 7.713407278060913086e-02 2.100000000000000000e+01
3.490150928497314453e+00 -2.062461376190185547e+00 7.711661607027053833e-02 1.600000000000000000e+01
3.429395914077758789e+00 -2.055050611495971680e+00 7.707752287387847900e-02 1.800000000000000000e+01
3.349595308303833008e+00 -2.149557113647460938e+00 7.706495374441146851e-02 2.500000000000000000e+01
3.359813928604125977e+00 -2.185337305068969727e+00 7.708450406789779663e-02 4.000000000000000000e+01
3.312945842742919922e+00 -2.183895111083984375e+00 7.705657929182052612e-02 5.000000000000000000e+01
3.387622356414794922e+00 -2.263067483901977539e+00 7.713057845830917358e-02 7.300000000000000000e+01
3.233727931976318359e+00 -2.189066648483276367e+00 7.701259851455688477e-02 4.300000000000000000e+01
3.228481292724609375e+00 -2.214524269104003906e+00 7.701957970857620239e-02 4.800000000000000000e+01
3.235360860824584961e+00 -2.248560428619384766e+00 7.703702896833419800e-02 1.900000000000000000e+01
3.250937223434448242e+00 -2.289097547531127930e+00 7.706216722726821899e-02 2.000000000000000000e+01
3.188800334930419922e+00 -2.274736404418945312e+00 7.702097296714782715e-02 3.500000000000000000e+01
3.109627246856689453e+00 -2.335492372512817383e+00 7.700142264366149902e-02 3.400000000000000000e+01
3.112257957458496094e+00 -2.490387678146362305e+00 7.706914842128753662e-02 7.050000000000000000e+02
3.089149475097656250e+00 -2.503141164779663086e+00 7.706216722726821899e-02 7.340000000000000000e+02
3.086874008178710938e+00 -2.532832860946655273e+00 7.707402855157852173e-02 7.170000000000000000e+02
3.198014974594116211e+00 1.955730020999908447e-01 6.650078296661376953e-02 1.300000000000000000e+02
3.182180643081665039e+00 1.750122308731079102e-01 6.654232740402221680e-02 5.730000000000000000e+02
3.253110647201538086e+00 1.589021682739257812e-01 6.637128442525863647e-02 6.920000000000000000e+02
3.269010782241821289e+00 1.395791023969650269e-01 6.633462756872177124e-02 8.350000000000000000e+02
3.269805669784545898e+00 1.195181980729103088e-01 6.633462756872177124e-02 8.570000000000000000e+02
3.270477533340454102e+00 9.945279359817504883e-02 6.633462756872177124e-02 8.790000000000000000e+02
3.257030248641967773e+00 7.904328405857086182e-02 6.636884063482284546e-02 8.440000000000000000e+02
3.262453079223632812e+00 5.914792045950889587e-02 6.635662168264389038e-02 8.860000000000000000e+02
3.261754751205444336e+00 3.911672532558441162e-02 6.635906547307968140e-02 9.020000000000000000e+02
3.265933275222778320e+00 1.912586577236652374e-02 6.634929031133651733e-02 9.070000000000000000e+02
3.258989095687866211e+00 -9.122798219323158264e-04 6.636639684438705444e-02 9.380000000000000000e+02
3.259922266006469727e+00 -2.091540955007076263e-02 6.636395305395126343e-02 9.510000000000000000e+02
3.265732049942016602e+00 -4.099252447485923767e-02 6.634929031133651733e-02 9.470000000000000000e+02
3.268418550491333008e+00 -6.108581647276878357e-02 6.634195894002914429e-02 9.750000000000000000e+02
3.267982244491577148e+00 -8.113930374383926392e-02 6.634195894002914429e-02 9.290000000000000000e+02
3.258427143096923828e+00 -1.009116098284721375e-01 6.636395305395126343e-02 9.410000000000000000e+02
3.260744571685791016e+00 -1.210141479969024658e-01 6.635662168264389038e-02 9.680000000000000000e+02
3.274926662445068359e+00 -1.416669338941574097e-01 6.631997227668762207e-02 8.900000000000000000e+02
3.279988288879394531e+00 -1.620546132326126099e-01 6.630530953407287598e-02 9.040000000000000000e+02
3.279930830001831055e+00 -1.822326183319091797e-01 6.630286574363708496e-02 9.370000000000000000e+02
3.284739494323730469e+00 -2.027237564325332642e-01 6.628820300102233887e-02 9.560000000000000000e+02
3.270463466644287109e+00 -2.219949811697006226e-01 6.631997227668762207e-02 9.210000000000000000e+02
3.278015375137329102e+00 -2.427221238613128662e-01 6.629797816276550293e-02 9.500000000000000000e+02
3.280451536178588867e+00 -2.631507217884063721e-01 6.628820300102233887e-02 9.190000000000000000e+02
3.292723178863525391e+00 -2.844786047935485840e-01 6.625399738550186157e-02 8.640000000000000000e+02
3.292906999588012695e+00 -3.048612773418426514e-01 6.624910980463027954e-02 8.970000000000000000e+02
3.291969537734985352e+00 -3.251586854457855225e-01 6.624666601419448853e-02 8.790000000000000000e+02
3.286928892135620117e+00 -3.450386524200439453e-01 6.625399738550186157e-02 8.200000000000000000e+02
3.286737680435180664e+00 -3.654212951660156250e-01 6.624910980463027954e-02 8.070000000000000000e+02
3.283440351486206055e+00 -3.854649066925048828e-01 6.625155359506607056e-02 7.600000000000000000e+02
3.285975694656372070e+00 -4.062176346778869629e-01 6.623933464288711548e-02 7.000000000000000000e+02
3.200120449066162109e+00 -4.155594706535339355e-01 6.644458323717117310e-02 1.600000000000000000e+02
3.242099523544311523e+00 -4.412535429000854492e-01 6.633462756872177124e-02 1.020000000000000000e+02
3.964615583419799805e+00 -2.027536630630493164e+00 6.344890594482421875e-02 9.480000000000000000e+02
3.952987909317016602e+00 -2.052285432815551758e+00 6.344646215438842773e-02 9.990000000000000000e+02
3.828850269317626953e+00 -2.017763614654541016e+00 6.375433504581451416e-02 3.900000000000000000e+01
3.597708225250244141e+00 -1.924262881278991699e+00 6.436031311750411987e-02 3.640000000000000000e+02
3.665813446044921875e+00 -1.989708662033081055e+00 6.413795799016952515e-02 1.030000000000000000e+02
3.515411376953125000e+00 -1.964308261871337891e+00 6.448981910943984985e-02 4.100000000000000000e+01
3.471973657608032227e+00 -1.968089938163757324e+00 6.457778066396713257e-02 3.100000000000000000e+01
3.454630613327026367e+00 -1.986365914344787598e+00 6.459244340658187866e-02 3.100000000000000000e+01
3.406095504760742188e+00 -1.986368894577026367e+00 6.469506770372390747e-02 3.500000000000000000e+01
3.394704103469848633e+00 -2.007740020751953125e+00 6.469262391328811646e-02 3.200000000000000000e+01
3.367247104644775391e+00 -2.047688484191894531e+00 6.469995528459548950e-02 4.100000000000000000e+01
3.340999603271484375e+00 -2.059914350509643555e+00 6.473904848098754883e-02 4.400000000000000000e+01
3.296921491622924805e+00 -2.060765743255615234e+00 6.482946127653121948e-02 4.800000000000000000e+01
3.296885728836059570e+00 -2.088984251022338867e+00 6.479281187057495117e-02 5.000000000000000000e+01
3.298310279846191406e+00 -2.118360519409179688e+00 6.475126743316650391e-02 4.300000000000000000e+01
3.266811847686767578e+00 -2.126557350158691406e+00 6.480502337217330933e-02 6.400000000000000000e+01
3.279578924179077148e+00 -2.163632154464721680e+00 6.472928076982498169e-02 3.600000000000000000e+01
3.257096529006958008e+00 -2.177601099014282227e+00 6.475615501403808594e-02 3.300000000000000000e+01
3.223803758621215820e+00 -2.184084892272949219e+00 6.481479853391647339e-02 3.800000000000000000e+01
3.139118432998657227e+00 -2.241046190261840820e+00 6.490520387887954712e-02 5.900000000000000000e+01
3.127739429473876953e+00 -2.262023210525512695e+00 6.489787995815277100e-02 5.300000000000000000e+01
