# .PCD v.7 - Point Cloud Data file format
VERSION .7
FIELDS x y z intensity
SIZE 4 4 4 4
TYPE F F F F
COUNT 1 1 1 1
WIDTH 471
HEIGHT 1
VIEWPOINT 0 0 0 1 0 0 0
POINTS 471
DATA ascii
3.090872049331665039e+00 -2.377758502960205078e+00 -1.953874528408050537e-01 1.090000000000000000e+03
3.063634157180786133e+00 -2.386867523193359375e+00 -1.942797154188156128e-01 1.035000000000000000e+03
3.041882991790771484e+00 -2.400058269500732422e+00 -1.936566084623336792e-01 1.057000000000000000e+03
3.022423505783081055e+00 -2.414940834045410156e+00 -1.932411938905715942e-01 1.062000000000000000e+03
3.003671646118164062e+00 -2.430302619934082031e+00 -1.928950250148773193e-01 1.116000000000000000e+03
2.988703012466430664e+00 -2.448687076568603516e+00 -1.928950250148773193e-01 1.121000000000000000e+03
2.973621845245361328e+00 -2.466979265213012695e+00 -1.928950250148773193e-01 1.169000000000000000e+03
2.973704099655151367e+00 -2.498013973236083984e+00 -1.942797154188156128e-01 1.310000000000000000e+03
2.949202775955200195e+00 -2.508455991744995117e+00 -1.934489011764526367e-01 1.382000000000000000e+03
2.924685716629028320e+00 -2.518691778182983398e+00 -1.926180869340896606e-01 1.340000000000000000e+03
2.909176111221313477e+00 -2.536589860916137695e+00 -1.926180869340896606e-01 1.417000000000000000e+03
2.880096912384033203e+00 -2.542506933212280273e+00 -1.913718730211257935e-01 1.246000000000000000e+03
2.865929603576660156e+00 -2.561460733413696289e+00 -1.915103495121002197e-01 1.170000000000000000e+03
3.546902656555175781e+00 1.369302511215209961e+00 -2.005743086338043213e-01 6.230000000000000000e+02
3.456377029418945312e+00 1.310047745704650879e+00 -1.929033249616622925e-01 1.300000000000000000e+01
3.229140996932983398e+00 1.089783906936645508e+00 -1.719890087842941284e-01 3.910000000000000000e+02
3.524672508239746094e+00 -2.385145425796508789e+00 -2.335016876459121704e-01 7.600000000000000000e+02
3.333121538162231445e+00 -2.285454511642456055e+00 -2.179425954818725586e-01 1.120000000000000000e+02
3.215831279754638672e+00 -2.234157085418701172e+00 -2.088242471218109131e-01 5.000000000000000000e+01
3.199615478515625000e+00 -2.252124547958374023e+00 -2.086071372032165527e-01 6.200000000000000000e+01
3.200353145599365234e+00 -2.282138586044311523e+00 -2.099097669124603271e-01 4.520000000000000000e+02
3.208118677139282227e+00 -2.317502737045288086e+00 -2.118636965751647949e-01 8.290000000000000000e+02
3.184179782867431641e+00 -2.330075263977050781e+00 -2.109952867031097412e-01 8.300000000000000000e+02
3.152996778488159180e+00 -2.337096214294433594e+00 -2.094755619764328003e-01 9.090000000000000000e+02
3.125038623809814453e+00 -2.346218109130859375e+00 -2.082453072071075439e-01 8.780000000000000000e+02
3.107408046722412109e+00 -2.362933874130249023e+00 -2.079558372497558594e-01 9.400000000000000000e+02
3.084949254989624023e+00 -2.375869989395141602e+00 -2.072321474552154541e-01 9.320000000000000000e+02
3.064808130264282227e+00 -2.390460014343261719e+00 -2.067255824804306030e-01 9.640000000000000000e+02
3.046952247619628906e+00 -2.406747341156005859e+00 -2.064361125230789185e-01 1.010000000000000000e+03
3.023560285568237305e+00 -2.418544292449951172e+00 -2.056400626897811890e-01 1.030000000000000000e+03
3.006338357925415039e+00 -2.435167551040649414e+00 -2.054229527711868286e-01 1.061000000000000000e+03
2.989797592163085938e+00 -2.452303171157836914e+00 -2.052782177925109863e-01 1.049000000000000000e+03
2.976995944976806641e+00 -2.472513914108276367e+00 -2.054953277111053467e-01 1.110000000000000000e+03
2.951845884323120117e+00 -2.482388257980346680e+00 -2.045545428991317749e-01 1.084000000000000000e+03
2.938836812973022461e+00 -2.502393722534179688e+00 -2.047716528177261353e-01 1.176000000000000000e+03
3.553478479385375977e+00 1.369615316390991211e+00 -2.110158950090408325e-01 7.280000000000000000e+02
3.462956428527832031e+00 1.310372710227966309e+00 -2.030681520700454712e-01 9.000000000000000000e+00
3.237628698348999023e+00 1.090646147727966309e+00 -1.815492659807205200e-01 4.740000000000000000e+02
3.024329900741577148e+00 -4.684769213199615479e-01 -1.547818481922149658e-01 3.000000000000000000e+01
3.522714138031005859e+00 -2.386574268341064453e+00 -2.446063756942749023e-01 5.980000000000000000e+02
3.306580066680908203e+00 -2.269884109497070312e+00 -2.262365818023681641e-01 6.400000000000000000e+01
3.268030405044555664e+00 -2.273049116134643555e+00 -2.239872217178344727e-01 4.700000000000000000e+01
3.188809394836425781e+00 -2.247108697891235352e+00 -2.179889231920242310e-01 8.600000000000000000e+01
3.176584720611572266e+00 -2.267791271209716797e+00 -2.181388735771179199e-01 6.200000000000000000e+01
3.150489330291748047e+00 -2.278474807739257812e+00 -2.170141935348510742e-01 4.700000000000000000e+02
3.179085016250610352e+00 -2.328994750976562500e+00 -2.209880650043487549e-01 9.980000000000000000e+02
3.170340299606323242e+00 -2.352617025375366211e+00 -2.215129286050796509e-01 1.048000000000000000e+03
3.149468183517456055e+00 -2.367232561111450195e+00 -2.209130972623825073e-01 1.072000000000000000e+03
3.123775243759155273e+00 -2.378057003021240234e+00 -2.198633849620819092e-01 1.092000000000000000e+03
3.104386568069458008e+00 -2.393526315689086914e+00 -2.194135189056396484e-01 1.133000000000000000e+03
3.078638076782226562e+00 -2.403937816619873047e+00 -2.183638215065002441e-01 1.071000000000000000e+03
3.059136390686035156e+00 -2.419071912765502930e+00 -2.179139405488967896e-01 1.075000000000000000e+03
3.031781435012817383e+00 -2.427824258804321289e+00 -2.167142778635025024e-01 1.094000000000000000e+03
3.012954711914062500e+00 -2.443241119384765625e+00 -2.163393944501876831e-01 1.168000000000000000e+03
3.568462610244750977e+00 1.375296711921691895e+00 -2.242632210254669189e-01 6.210000000000000000e+02
3.234045743942260742e+00 1.089317440986633301e+00 -1.920033395290374756e-01 4.720000000000000000e+02
3.320531129837036133e+00 -2.279551029205322266e+00 -2.401978820562362671e-01 4.100000000000000000e+01
3.165699481964111328e+00 -2.201985120773315430e+00 -2.267627716064453125e-01 4.300000000000000000e+01
3.168463230133056641e+00 -2.262096881866455078e+00 -2.296528816223144531e-01 7.400000000000000000e+01
3.157755136489868164e+00 -2.283832073211669922e+00 -2.299653291702270508e-01 8.000000000000000000e+01
3.104272365570068359e+00 -2.274299383163452148e+00 -2.261378914117813110e-01 3.590000000000000000e+02
3.171125411987304688e+00 -2.353299140930175781e+00 -2.340271025896072388e-01 9.830000000000000000e+02
3.139889240264892578e+00 -2.360135316848754883e+00 -2.323867678642272949e-01 9.720000000000000000e+02
3.117415428161621094e+00 -2.373319149017333984e+00 -2.316056638956069946e-01 9.630000000000000000e+02
3.098846435546875000e+00 -2.389359235763549805e+00 -2.312151044607162476e-01 1.025000000000000000e+03
3.536813974380493164e+00 1.366114854812622070e+00 -2.455840408802032471e-01 6.910000000000000000e+02
3.315708160400390625e+00 1.165156126022338867e+00 -2.221282124519348145e-01 5.200000000000000000e+01
3.225908279418945312e+00 1.089317798614501953e+00 -2.128471285104751587e-01 4.030000000000000000e+02
3.024637222290039062e+00 -2.073141336441040039e+00 -2.350373566150665283e-01 2.700000000000000000e+01
3.214823961257934570e+00 -2.232628107070922852e+00 -2.559619843959808350e-01 6.430000000000000000e+02
3.204324007034301758e+00 -2.254605531692504883e+00 -2.562994658946990967e-01 2.790000000000000000e+02
3.160408973693847656e+00 -2.252823114395141602e+00 -2.531776726245880127e-01 5.200000000000000000e+01
3.136024951934814453e+00 -2.264588594436645508e+00 -2.520807981491088867e-01 4.800000000000000000e+01
3.122070789337158203e+00 -2.283788442611694336e+00 -2.520807981491088867e-01 6.900000000000000000e+01
3.094388961791992188e+00 -2.292816638946533203e+00 -2.506464421749114990e-01 5.400000000000000000e+01
3.089825391769409180e+00 -2.318938255310058594e+00 -2.516589462757110596e-01 6.100000000000000000e+01
3.014458894729614258e+00 -2.291419982910156250e+00 -2.451621741056442261e-01 1.840000000000000000e+02
3.066662549972534180e+00 -2.360935688018798828e+00 -2.522495388984680176e-01 8.180000000000000000e+02
3.033259630203247070e+00 -2.365002632141113281e+00 -2.502245903015136719e-01 5.640000000000000000e+02
2.977244615554809570e+00 -2.350840806961059570e+00 -2.457527965307235718e-01 4.200000000000000000e+01
2.961207628250122070e+00 -2.367820024490356445e+00 -2.455840408802032471e-01 3.700000000000000000e+01
2.928075313568115234e+00 -2.400820970535278320e+00 -2.451621741056442261e-01 7.240000000000000000e+02
2.943187236785888672e+00 -2.443567037582397461e+00 -2.484527379274368286e-01 1.013000000000000000e+03
2.932714462280273438e+00 -2.465427637100219727e+00 -2.489589899778366089e-01 1.047000000000000000e+03
2.921325445175170898e+00 -2.486605405807495117e+00 -2.493808567523956299e-01 9.880000000000000000e+02
3.542729616165161133e+00 1.364667654037475586e+00 -2.686277031898498535e-01 6.590000000000000000e+02
3.243181228637695312e+00 1.091768264770507812e+00 -2.346805781126022339e-01 5.550000000000000000e+02
3.173039913177490234e+00 -2.179136991500854492e+00 -2.734128236770629883e-01 1.100000000000000000e+02
3.205392360687255859e+00 -2.230414152145385742e+00 -2.784687578678131104e-01 6.380000000000000000e+02
3.116991758346557617e+00 -2.226177692413330078e+00 -2.716974020004272461e-01 3.100000000000000000e+01
3.092783212661743164e+00 -2.237673282623291016e+00 -2.705236971378326416e-01 4.700000000000000000e+01
3.058235406875610352e+00 -2.299608230590820312e+00 -2.713362574577331543e-01 5.400000000000000000e+01
3.537310123443603516e+00 1.367013454437255859e+00 -2.921952605247497559e-01 6.730000000000000000e+02
3.230642318725585938e+00 1.091541767120361328e+00 -2.551236748695373535e-01 4.160000000000000000e+02
3.170779228210449219e+00 -2.201219797134399414e+00 -2.987600266933441162e-01 2.100000000000000000e+01
3.154770612716674805e+00 -2.218915939331054688e+00 -2.984704077243804932e-01 2.000000000000000000e+01
3.105431318283081055e+00 -2.212815761566162109e+00 -2.942226231098175049e-01 3.200000000000000000e+01
3.075655221939086914e+00 -2.220176696777343750e+00 -2.922918200492858887e-01 3.200000000000000000e+01
3.075632572174072266e+00 -2.248994827270507812e+00 -2.939330041408538818e-01 5.100000000000000000e+01
3.024184465408325195e+00 -2.239979028701782227e+00 -2.893956005573272705e-01 2.700000000000000000e+01
3.023121833801269531e+00 -2.268050432205200195e+00 -2.909402549266815186e-01 4.000000000000000000e+01
3.028959989547729492e+00 -2.301612854003906250e+00 -2.933537662029266357e-01 3.700000000000000000e+01
3.031344413757324219e+00 -2.332903385162353516e+00 -2.953810989856719971e-01 7.400000000000000000e+01
2.997019290924072266e+00 -2.365610122680664062e+00 -2.947053313255310059e-01 2.100000000000000000e+01
2.980892896652221680e+00 -2.382711887359619141e+00 -2.945122420787811279e-01 1.600000000000000000e+01
2.876025438308715820e+00 -2.386956691741943359e+00 -2.868855297565460205e-01 6.900000000000000000e+01
3.549695491790771484e+00 1.367352008819580078e+00 -3.160450160503387451e-01 7.010000000000000000e+02
3.409730195999145508e+00 1.194645285606384277e+00 -2.963755130767822266e-01 7.000000000000000000e+01
3.273300409317016602e+00 1.101912379264831543e+00 -2.799842655658721924e-01 5.110000000000000000e+02
3.155070543289184570e+00 -2.195408105850219727e+00 -3.201428353786468506e-01 1.400000000000000000e+01
3.127082347869873047e+00 -2.233382463455200195e+00 -3.200404047966003418e-01 4.200000000000000000e+01
3.062541961669921875e+00 -2.215799570083618164e+00 -3.135863542556762695e-01 3.300000000000000000e+01
3.014876365661621094e+00 -2.267013549804687500e+00 -3.127667903900146484e-01 3.500000000000000000e+01
3.566387414932250977e+00 1.378249168395996094e+00 -3.409130871295928955e-01 6.940000000000000000e+02
3.212584495544433594e+00 1.085441470146179199e+00 -2.937824130058288574e-01 4.080000000000000000e+02
3.287776231765747070e+00 -2.282448768615722656e+00 -3.604154288768768311e-01 1.400000000000000000e+01
3.286719083786010742e+00 -2.311730384826660156e+00 -3.621489703655242920e-01 2.100000000000000000e+01
3.146871805191040039e+00 -2.271589517593383789e+00 -3.471971750259399414e-01 1.600000000000000000e+01
3.131269693374633789e+00 -2.289681911468505859e+00 -3.469804823398590088e-01 2.100000000000000000e+01
3.064439296722412109e+00 -2.269797801971435547e+00 -3.398296236991882324e-01 2.200000000000000000e+01
3.052044630050659180e+00 -2.289751291275024414e+00 -3.400463163852691650e-01 3.100000000000000000e+01
2.985698461532592773e+00 -2.268736839294433594e+00 -3.328954577445983887e-01 2.400000000000000000e+01
2.980387449264526367e+00 -2.293683767318725586e+00 -3.340872526168823242e-01 2.700000000000000000e+01
2.961379528045654297e+00 -2.337476491928100586e+00 -3.353874385356903076e-01 1.100000000000000000e+01
2.930674791336059570e+00 -2.342567682266235352e+00 -3.331121504306793213e-01 1.800000000000000000e+01
2.923972606658935547e+00 -2.366760730743408203e+00 -3.341956138610839844e-01 1.400000000000000000e+01
2.918621301651000977e+00 -2.392220020294189453e+00 -3.354957699775695801e-01 1.300000000000000000e+01
2.825098752975463867e+00 -2.344686508178710938e+00 -3.243360817432403564e-01 3.640000000000000000e+02
2.735316753387451172e+00 -2.298656225204467773e+00 -3.136098086833953857e-01 1.550000000000000000e+02
2.779457092285156250e+00 -2.365004539489746094e+00 -3.219524621963500977e-01 2.620000000000000000e+02
3.860211610794067383e+00 2.860280513763427734e+00 -4.766139090061187744e-01 4.200000000000000000e+01
3.552539587020874023e+00 1.368448019027709961e+00 -3.619133234024047852e-01 6.170000000000000000e+02
3.313461780548095703e+00 1.160901427268981934e+00 -3.278687298297882080e-01 6.800000000000000000e+01
3.246490240097045898e+00 1.092882752418518066e+00 -3.180437684059143066e-01 5.580000000000000000e+02
3.235532522201538086e+00 -2.051005840301513672e+00 -3.646551668643951416e-01 2.000000000000000000e+01
3.228738069534301758e+00 -2.074578523635864258e+00 -3.654548823833465576e-01 1.300000000000000000e+01
3.215947866439819336e+00 -2.094350576400756836e+00 -3.654548823833465576e-01 2.700000000000000000e+01
3.180647850036621094e+00 -2.099271059036254883e+00 -3.623702824115753174e-01 2.600000000000000000e+01
3.188353061676025391e+00 -2.132553100585937500e+00 -3.652263879776000977e-01 2.100000000000000000e+01
3.199058532714843750e+00 -2.168236970901489258e+00 -3.685394525527954102e-01 1.400000000000000000e+01
3.214415788650512695e+00 -2.295739412307739258e+00 -3.783644139766693115e-01 3.200000000000000000e+01
3.085160493850708008e+00 -2.232159852981567383e+00 -3.620275557041168213e-01 1.400000000000000000e+01
2.999081373214721680e+00 -2.255140066146850586e+00 -3.556299209594726562e-01 2.300000000000000000e+01
3.912689685821533203e+00 2.651746749877929688e+00 -4.960221648216247559e-01 1.009000000000000000e+03
3.927236557006835938e+00 2.626585245132446289e+00 -4.957818984985351562e-01 8.930000000000000000e+02
3.928364276885986328e+00 2.592596292495727539e+00 -4.936194419860839844e-01 7.510000000000000000e+02
3.974147796630859375e+00 2.587945222854614258e+00 -4.979443550109863281e-01 6.840000000000000000e+02
3.972412347793579102e+00 2.552242994308471680e+00 -4.954214692115783691e-01 5.780000000000000000e+02
3.946910381317138672e+00 2.501779079437255859e+00 -4.895347654819488525e-01 5.290000000000000000e+02
3.965553760528564453e+00 2.479619503021240234e+00 -4.900153279304504395e-01 4.240000000000000000e+02
3.982383728027343750e+00 2.456282854080200195e+00 -4.902555942535400391e-01 5.540000000000000000e+02
3.537701606750488281e+00 1.366457700729370117e+00 -3.829734027385711670e-01 6.370000000000000000e+02
3.368148088455200195e+00 1.183580994606018066e+00 -3.560627400875091553e-01 5.400000000000000000e+01
3.217814922332763672e+00 1.086585283279418945e+00 -3.350388109683990479e-01 4.000000000000000000e+02
3.110377550125122070e+00 -1.941052675247192383e+00 -3.677160143852233887e-01 1.700000000000000000e+01
3.138678550720214844e+00 -1.985578656196594238e+00 -3.734825849533081055e-01 1.700000000000000000e+01
3.123929023742675781e+00 -2.003191947937011719e+00 -3.731221854686737061e-01 7.000000000000000000e+00
3.154029846191406250e+00 -2.049915552139282227e+00 -3.792491555213928223e-01 1.100000000000000000e+01
3.158802270889282227e+00 -2.080698490142822266e+00 -3.817720413208007812e-01 1.400000000000000000e+01
3.188910722732543945e+00 -2.128704547882080078e+00 -3.880191445350646973e-01 2.300000000000000000e+01
3.188945531845092773e+00 -2.157131433486938477e+00 -3.899413347244262695e-01 2.000000000000000000e+01
3.204309225082397461e+00 -2.196303606033325195e+00 -3.941461145877838135e-01 1.500000000000000000e+01
3.209591627120971680e+00 -2.258312225341796875e+00 -3.989515900611877441e-01 2.900000000000000000e+01
3.154447317123413086e+00 -2.248573064804077148e+00 -3.928246200084686279e-01 2.600000000000000000e+01
3.083448648452758789e+00 -2.226618766784667969e+00 -3.842948973178863525e-01 3.300000000000000000e+01
3.052902221679687500e+00 -2.233187198638916016e+00 -3.817720413208007812e-01 2.600000000000000000e+01
3.031963586807250977e+00 -2.246557950973510742e+00 -3.806908130645751953e-01 2.900000000000000000e+01
2.968100786209106445e+00 -2.227574825286865234e+00 -3.731221854686737061e-01 2.900000000000000000e+01
2.982828140258789062e+00 -2.267373800277709961e+00 -3.774470984935760498e-01 3.200000000000000000e+01
2.897277593612670898e+00 -2.230519771575927734e+00 -3.665146529674530029e-01 1.500000000000000000e+01
2.884319782257080078e+00 -2.248865604400634766e+00 -3.666347861289978027e-01 1.700000000000000000e+01
2.879816293716430664e+00 -2.273904085159301758e+00 -3.680764436721801758e-01 1.100000000000000000e+01
2.861932992935180664e+00 -2.288431406021118164e+00 -3.674757480621337891e-01 1.200000000000000000e+01
2.862496137619018555e+00 -2.317819356918334961e+00 -3.697583377361297607e-01 1.800000000000000000e+01
2.858200073242187500e+00 -2.343523025512695312e+00 -3.713201284408569336e-01 8.000000000000000000e+00
2.843003034591674805e+00 -2.360382318496704102e+00 -3.711999952793121338e-01 1.000000000000000000e+01
3.765028476715087891e+00 2.826714277267456055e+00 -5.237268805503845215e-01 1.277000000000000000e+03
3.777520895004272461e+00 2.800014734268188477e+00 -5.229686498641967773e-01 1.269000000000000000e+03
3.795430660247802734e+00 2.777369499206542969e+00 -5.230950117111206055e-01 1.214000000000000000e+03
3.805968523025512695e+00 2.749381065368652344e+00 -5.220840573310852051e-01 1.128000000000000000e+03
3.829227447509765625e+00 2.730584383010864258e+00 -5.230950117111206055e-01 1.150000000000000000e+03
3.847532272338867188e+00 2.708179473876953125e+00 -5.233477354049682617e-01 1.194000000000000000e+03
3.861633062362670898e+00 2.682822227478027344e+00 -5.229686498641967773e-01 1.094000000000000000e+03
3.867387056350708008e+00 2.651783466339111328e+00 -5.213258266448974609e-01 1.025000000000000000e+03
3.890157222747802734e+00 2.632452011108398438e+00 -5.223367810249328613e-01 1.049000000000000000e+03
3.915310144424438477e+00 2.614593505859375000e+00 -5.237268805503845215e-01 1.011000000000000000e+03
3.957783699035644531e+00 2.607989549636840820e+00 -5.277707576751708984e-01 1.038000000000000000e+03
3.973711490631103516e+00 2.583656072616577148e+00 -5.277707576751708984e-01 9.400000000000000000e+02
3.946909904479980469e+00 2.531904220581054688e+00 -5.213258266448974609e-01 9.760000000000000000e+02
3.959856510162353516e+00 2.506047010421752930e+00 -5.209466814994812012e-01 9.170000000000000000e+02
3.973476171493530273e+00 2.480651855468750000e+00 -5.206939578056335449e-01 9.640000000000000000e+02
3.977642297744750977e+00 2.449461221694946289e+00 -5.190511345863342285e-01 6.400000000000000000e+02
3.999379396438598633e+00 2.429129123687744141e+00 -5.200620889663696289e-01 8.740000000000000000e+02
3.953792572021484375e+00 2.368344783782958984e+00 -5.110896825790405273e-01 6.260000000000000000e+02
3.550767183303833008e+00 1.368474245071411133e+00 -4.087282717227935791e-01 5.450000000000000000e+02
3.348628759384155273e+00 1.173881769180297852e+00 -3.759978711605072021e-01 6.700000000000000000e+01
3.287578582763671875e+00 1.107357621192932129e+00 -3.658881187438964844e-01 4.910000000000000000e+02
3.254556179046630859e+00 -2.034390449523925781e+00 -4.128985404968261719e-01 1.300000000000000000e+01
3.100391387939453125e+00 -1.964608907699584961e+00 -3.915416598320007324e-01 2.300000000000000000e+01
3.176758766174316406e+00 -2.040409088134765625e+00 -4.049370884895324707e-01 8.000000000000000000e+00
3.150045156478881836e+00 -2.050664424896240234e+00 -4.027887582778930664e-01 1.500000000000000000e+01
3.167214155197143555e+00 -2.089616775512695312e+00 -4.073381721973419189e-01 1.600000000000000000e+01
3.186496496200561523e+00 -2.130509853363037109e+00 -4.122666716575622559e-01 1.400000000000000000e+01
3.188969135284423828e+00 -2.160591363906860352e+00 -4.146677553653717041e-01 2.800000000000000000e+01
3.245172262191772461e+00 -2.227830886840820312e+00 -4.254093766212463379e-01 3.000000000000000000e+01
3.063125133514404297e+00 -2.186912059783935547e+00 -4.034206271171569824e-01 9.000000000000000000e+01
3.131642818450927734e+00 -2.264951705932617188e+00 -4.163105785846710205e-01 4.600000000000000000e+01
2.954607009887695312e+00 -2.220902919769287109e+00 -3.948273360729217529e-01 1.900000000000000000e+01
3.749494075775146484e+00 2.815048933029174805e+00 -5.785548090934753418e-01 1.072000000000000000e+03
3.775447845458984375e+00 2.798477649688720703e+00 -5.800762176513671875e-01 1.160000000000000000e+03
3.799740552902221680e+00 2.780524015426635742e+00 -5.813210010528564453e-01 1.137000000000000000e+03
3.819138288497924805e+00 2.758896827697753906e+00 -5.817359089851379395e-01 1.139000000000000000e+03
3.831156969070434570e+00 2.731960535049438477e+00 -5.809060931205749512e-01 1.215000000000000000e+03
3.835700511932373047e+00 2.699849367141723633e+00 -5.788314342498779297e-01 1.090000000000000000e+03
3.854634046554565430e+00 2.677958726882934570e+00 -5.792463421821594238e-01 1.053000000000000000e+03
3.856291532516479492e+00 2.644173860549926758e+00 -5.767567753791809082e-01 9.970000000000000000e+02
3.872443437576293945e+00 2.620462179183959961e+00 -5.767567753791809082e-01 9.990000000000000000e+02
3.890919923782348633e+00 2.598302364349365234e+00 -5.771717429161071777e-01 9.550000000000000000e+02
3.932424306869506836e+00 2.591275215148925781e+00 -5.814592838287353516e-01 1.047000000000000000e+03
3.942438364028930664e+00 2.563318014144897461e+00 -5.804911255836486816e-01 9.880000000000000000e+02
3.949756860733032227e+00 2.533730983734130859e+00 -5.791080594062805176e-01 8.850000000000000000e+02
3.971086978912353516e+00 2.513155937194824219e+00 -5.800762176513671875e-01 9.660000000000000000e+02
3.989792823791503906e+00 2.490840911865234375e+00 -5.806294679641723633e-01 8.860000000000000000e+02
3.999098300933837891e+00 2.462677240371704102e+00 -5.796613097190856934e-01 7.410000000000000000e+02
3.916794538497924805e+00 2.378956794738769531e+00 -5.637557506561279297e-01 5.420000000000000000e+02
3.988238811492919922e+00 2.388983488082885742e+00 -5.730224847793579102e-01 7.690000000000000000e+02
3.376225948333740234e+00 1.325030207633972168e+00 -4.302876889705657959e-01 1.250000000000000000e+02
3.564489126205444336e+00 1.373764753341674805e+00 -4.572579264640808105e-01 1.760000000000000000e+02
3.492267370223999023e+00 1.321364641189575195e+00 -4.452250599861145020e-01 1.030000000000000000e+02
3.484526634216308594e+00 1.294048070907592773e+00 -4.428738057613372803e-01 8.100000000000000000e+01
3.435641527175903320e+00 1.251950860023498535e+00 -4.344369769096374512e-01 9.200000000000000000e+01
3.365857124328613281e+00 1.203166127204895020e+00 -4.229573309421539307e-01 8.900000000000000000e+01
3.354484796524047852e+00 1.175935626029968262e+00 -4.201911389827728271e-01 1.210000000000000000e+02
3.314808368682861328e+00 1.139229178428649902e+00 -4.132757186889648438e-01 3.900000000000000000e+01
3.262608766555786133e+00 1.098942995071411133e+00 -4.045622348785400391e-01 4.220000000000000000e+02
3.146244287490844727e+00 -1.939961552619934082e+00 -4.399693310260772705e-01 2.000000000000000000e+01
3.127562522888183594e+00 -1.955031275749206543e+00 -4.388628602027893066e-01 1.700000000000000000e+01
3.107141256332397461e+00 -1.968884825706481934e+00 -4.374797642230987549e-01 1.400000000000000000e+01
3.154171943664550781e+00 -2.025906085968017578e+00 -4.472996890544891357e-01 1.400000000000000000e+01
3.110138893127441406e+00 -2.024693250656127930e+00 -4.420439600944519043e-01 1.300000000000000000e+01
3.048052072525024414e+00 -2.011020421981811523e+00 -4.337454140186309814e-01 1.800000000000000000e+01
3.156693220138549805e+00 -2.110588788986206055e+00 -4.540768265724182129e-01 1.200000000000000000e+01
3.182223320007324219e+00 -2.156022310256958008e+00 -4.605773389339447021e-01 2.300000000000000000e+01
3.325716257095336914e+00 -2.283109664916992188e+00 -4.871326386928558350e-01 4.700000000000000000e+01
3.130771875381469727e+00 -2.235194683074951172e+00 -4.609922766685485840e-01 1.890000000000000000e+02
3.060015439987182617e+00 -2.213161468505859375e+00 -4.511723518371582031e-01 3.500000000000000000e+01
3.020810127258300781e+00 -2.213168859481811523e+00 -4.467464685440063477e-01 2.800000000000000000e+01
2.971254587173461914e+00 -2.233412981033325195e+00 -4.428738057613372803e-01 2.300000000000000000e+01
3.739971637725830078e+00 2.807898044586181641e+00 -6.325759887695312500e-01 1.113000000000000000e+03
3.753953218460083008e+00 2.782541751861572266e+00 -6.319764852523803711e-01 1.097000000000000000e+03
3.770158052444458008e+00 2.758871555328369141e+00 -6.318265795707702637e-01 1.082000000000000000e+03
3.788618087768554688e+00 2.736844539642333984e+00 -6.321263313293457031e-01 1.100000000000000000e+03
3.822243452072143555e+00 2.725603103637695312e+00 -6.352738142013549805e-01 1.176000000000000000e+03
3.830811023712158203e+00 2.696407079696655273e+00 -6.337750554084777832e-01 1.068000000000000000e+03
3.844847917556762695e+00 2.671158313751220703e+00 -6.333253979682922363e-01 9.780000000000000000e+02
3.854642629623413086e+00 2.643042802810668945e+00 -6.321263313293457031e-01 9.940000000000000000e+02
3.876518964767456055e+00 2.623220920562744141e+00 -6.331754922866821289e-01 1.016000000000000000e+03
3.889252901077270508e+00 2.597188949584960938e+00 -6.325759887695312500e-01 9.150000000000000000e+02
3.916673183441162109e+00 2.580893516540527344e+00 -6.346743106842041016e-01 9.740000000000000000e+02
3.930777788162231445e+00 2.555734634399414062e+00 -6.343745589256286621e-01 9.710000000000000000e+02
3.940560579299926758e+00 2.527830123901367188e+00 -6.333253979682922363e-01 8.960000000000000000e+02
3.945971965789794922e+00 2.497257947921752930e+00 -6.315268278121948242e-01 8.900000000000000000e+02
3.972122907638549805e+00 2.479806661605834961e+00 -6.334753036499023438e-01 9.040000000000000000e+02
3.981371164321899414e+00 2.451757907867431641e+00 -6.324261426925659180e-01 8.560000000000000000e+02
3.398113250732421875e+00 1.333623647689819336e+00 -4.770000576972961426e-01 1.380000000000000000e+02
3.509553670883178711e+00 1.352584123611450195e+00 -4.937866628170013428e-01 4.340000000000000000e+02
3.429017782211303711e+00 1.297423243522644043e+00 -4.793981611728668213e-01 2.400000000000000000e+01
3.259891033172607422e+00 1.098027110099792480e+00 -4.450755119323730469e-01 6.610000000000000000e+02
3.168685436248779297e+00 -1.953794479370117188e+00 -4.879413247108459473e-01 2.500000000000000000e+01
3.108845472335815430e+00 -1.943334817886352539e+00 -4.793981611728668213e-01 4.800000000000000000e+01
3.114402532577514648e+00 -1.973484635353088379e+00 -4.825456440448760986e-01 6.400000000000000000e+01
3.107226610183715820e+00 -1.995762348175048828e+00 -4.834449291229248047e-01 4.500000000000000000e+01
3.086635828018188477e+00 -2.009397268295288086e+00 -4.819461107254028320e-01 7.200000000000000000e+01
3.118816852569580078e+00 -2.057695150375366211e+00 -4.900396466255187988e-01 2.400000000000000000e+01
3.065854787826538086e+00 -2.049870967864990234e+00 -4.826955199241638184e-01 2.600000000000000000e+01
3.040121793746948242e+00 -2.059772729873657227e+00 -4.802974164485931396e-01 1.900000000000000000e+01
3.273611307144165039e+00 -2.247349262237548828e+00 -5.255613327026367188e-01 1.120000000000000000e+02
3.011392116546630859e+00 -2.122215747833251953e+00 -4.820959866046905518e-01 4.180000000000000000e+02
3.120635271072387695e+00 -2.227959871292114258e+00 -5.048778057098388672e-01 9.000000000000000000e+01
3.227087259292602539e+00 -2.333962440490722656e+00 -5.273599028587341309e-01 2.500000000000000000e+01
2.994135141372680664e+00 -2.221989393234252930e+00 -4.888406097888946533e-01 1.000000000000000000e+01
2.911679267883300781e+00 -2.188644409179687500e+00 -4.758010208606719971e-01 1.900000000000000000e+01
2.891901254653930664e+00 -2.201678752899169922e+00 -4.746019840240478516e-01 1.900000000000000000e+01
3.721466779708862305e+00 2.795014619827270508e+00 -6.856036186218261719e-01 1.001000000000000000e+03
3.740131855010986328e+00 2.773303270339965820e+00 -6.859268546104431152e-01 9.730000000000000000e+02
3.756281852722167969e+00 2.749718904495239258e+00 -6.857652068138122559e-01 9.260000000000000000e+02
3.774682760238647461e+00 2.727775335311889648e+00 -6.860884428024291992e-01 9.750000000000000000e+02
3.798578977584838867e+00 2.709721565246582031e+00 -6.875428557395935059e-01 1.017000000000000000e+03
3.816747665405273438e+00 2.687499523162841797e+00 -6.878660917282104492e-01 1.002000000000000000e+03
3.834786653518676758e+00 2.665156364440917969e+00 -6.881892681121826172e-01 9.170000000000000000e+02
3.841302633285522461e+00 2.634876728057861328e+00 -6.862500309944152832e-01 8.870000000000000000e+02
3.863117694854736328e+00 2.615130424499511719e+00 -6.873812675476074219e-01 9.030000000000000000e+02
3.886475801467895508e+00 2.596312046051025391e+00 -6.888356804847717285e-01 9.060000000000000000e+02
3.905628919601440430e+00 2.574589252471923828e+00 -6.894820928573608398e-01 8.450000000000000000e+02
3.920525550842285156e+00 2.550038099288940430e+00 -6.893205046653747559e-01 8.920000000000000000e+02
3.936098575592041016e+00 2.525934219360351562e+00 -6.893205046653747559e-01 8.830000000000000000e+02
3.950689554214477539e+00 2.501207113265991211e+00 -6.891589164733886719e-01 8.400000000000000000e+02
3.955081701278686523e+00 2.470122098922729492e+00 -6.870580911636352539e-01 7.650000000000000000e+02
3.976884841918945312e+00 2.449949264526367188e+00 -6.883509159088134766e-01 7.890000000000000000e+02
3.258155584335327148e+00 1.715373396873474121e+00 -5.264238715171813965e-01 4.110000000000000000e+02
3.186278581619262695e+00 1.652626872062683105e+00 -5.112330913543701172e-01 4.410000000000000000e+02
3.206025123596191406e+00 1.637985348701477051e+00 -5.130107402801513672e-01 5.060000000000000000e+02
3.258326292037963867e+00 1.639580845832824707e+00 -5.207677483558654785e-01 6.140000000000000000e+02
3.275398731231689453e+00 1.623063683509826660e+00 -5.220605731010437012e-01 5.890000000000000000e+02
3.309241056442260742e+00 1.614622831344604492e+00 -5.264238715171813965e-01 3.690000000000000000e+02
3.359113216400146484e+00 1.613520860671997070e+00 -5.336960554122924805e-01 1.740000000000000000e+02
3.759803056716918945e+00 1.583957076072692871e+00 -5.915502309799194336e-01 2.500000000000000000e+01
3.481897115707397461e+00 1.416779160499572754e+00 -5.390289425849914551e-01 2.500000000000000000e+01
3.521678924560546875e+00 1.407847046852111816e+00 -5.445234775543212891e-01 2.100000000000000000e+01
3.369508504867553711e+00 1.323068976402282715e+00 -5.162428021430969238e-01 1.600000000000000000e+02
3.497257471084594727e+00 1.348541855812072754e+00 -5.372512936592102051e-01 4.120000000000000000e+02
3.348878145217895508e+00 1.174623131752014160e+00 -5.046073198318481445e-01 8.200000000000000000e+01
3.202981948852539062e+00 1.101401448249816895e+00 -4.781043231487274170e-01 3.400000000000000000e+01
3.277943849563598633e+00 1.104745388031005859e+00 -4.899013936519622803e-01 5.960000000000000000e+02
3.174043893814086914e+00 -1.956335902214050293e+00 -5.340192317962646484e-01 5.800000000000000000e+01
3.141892910003662109e+00 -1.963226675987243652e+00 -5.301407575607299805e-01 4.900000000000000000e+01
3.103107452392578125e+00 -1.965573430061340332e+00 -5.249694585800170898e-01 8.300000000000000000e+01
3.096801996231079102e+00 -1.988308191299438477e+00 -5.261006355285644531e-01 5.700000000000000000e+01
3.066344976425170898e+00 -1.995433092117309570e+00 -5.225453972816467285e-01 7.400000000000000000e+01
3.074640989303588867e+00 -2.027790546417236328e+00 -5.265854597091674805e-01 6.300000000000000000e+01
3.057217597961425781e+00 -2.043328523635864258e+00 -5.256158709526062012e-01 2.400000000000000000e+01
3.059331417083740234e+00 -2.072007894515991211e+00 -5.285246968269348145e-01 2.100000000000000000e+01
3.034353733062744141e+00 -2.082366228103637695e+00 -5.261006355285644531e-01 5.200000000000000000e+01
3.140635967254638672e+00 -2.183746099472045898e+00 -5.498564243316650391e-01 2.990000000000000000e+02
3.144928216934204102e+00 -2.215476751327514648e+00 -5.534117221832275391e-01 3.300000000000000000e+02
3.197149038314819336e+00 -2.281731843948364258e+00 -5.666632056236267090e-01 4.500000000000000000e+01
3.323855161666870117e+00 -2.403049945831298828e+00 -5.951054692268371582e-01 2.100000000000000000e+01
2.894617080688476562e+00 -2.147376060485839844e+00 -5.136571526527404785e-01 1.600000000000000000e+01
2.852192163467407227e+00 -2.143166303634643555e+00 -5.076777935028076172e-01 2.100000000000000000e+01
2.811499834060668945e+00 -2.139712810516357422e+00 -5.020216703414916992e-01 1.600000000000000000e+01
2.786592483520507812e+00 -2.147888183593750000e+00 -4.995976388454437256e-01 2.900000000000000000e+01
3.727495193481445312e+00 2.799543380737304688e+00 -7.427574992179870605e-01 8.770000000000000000e+02
3.725617170333862305e+00 2.762538194656372070e+00 -7.386023402214050293e-01 8.280000000000000000e+02
3.759185314178466797e+00 2.751844882965087891e+00 -7.422381043434143066e-01 9.050000000000000000e+02
3.785578250885009766e+00 2.735650777816772461e+00 -7.443156838417053223e-01 9.250000000000000000e+02
3.805499553680419922e+00 2.714659452438354492e+00 -7.450082302093505859e-01 9.500000000000000000e+02
3.819669008255004883e+00 2.689557075500488281e+00 -7.444888353347778320e-01 9.100000000000000000e+02
3.839334726333618164e+00 2.668318033218383789e+00 -7.451813817024230957e-01 8.130000000000000000e+02
3.836143732070922852e+00 2.631337404251098633e+00 -7.410262227058410645e-01 7.900000000000000000e+02
3.853032588958740234e+00 2.608301877975463867e+00 -7.411993145942687988e-01 8.440000000000000000e+02
3.893531560897827148e+00 2.601026535034179688e+00 -7.463933229446411133e-01 8.090000000000000000e+02
3.908595561981201172e+00 2.576545238494873047e+00 -7.462201714515686035e-01 7.760000000000000000e+02
3.926808118820190430e+00 2.554125308990478516e+00 -7.467395663261413574e-01 8.260000000000000000e+02
3.940748214721679688e+00 2.528918743133544922e+00 -7.463933229446411133e-01 7.960000000000000000e+02
3.949534654617309570e+00 2.500475883483886719e+00 -7.450082302093505859e-01 7.140000000000000000e+02
3.968979358673095703e+00 2.478803873062133789e+00 -7.458739280700683594e-01 7.390000000000000000e+02
3.966506004333496094e+00 2.443553924560546875e+00 -7.422381043434143066e-01 7.180000000000000000e+02
3.995732784271240234e+00 2.427865743637084961e+00 -7.451813817024230957e-01 3.940000000000000000e+02
3.099047660827636719e+00 1.856952905654907227e+00 -5.583714246749877930e-01 5.030000000000000000e+02
3.091730356216430664e+00 1.826877117156982422e+00 -5.545625090599060059e-01 3.480000000000000000e+02
3.041615486145019531e+00 1.772164225578308105e+00 -5.420969128608703613e-01 1.410000000000000000e+02
2.942272663116455078e+00 1.690165877342224121e+00 -5.197628736495971680e-01 1.180000000000000000e+02
3.123119592666625977e+00 1.768687963485717773e+00 -5.542162060737609863e-01 2.430000000000000000e+02
3.198405981063842773e+00 1.785506367683410645e+00 -5.672011375427246094e-01 6.460000000000000000e+02
3.210164308547973633e+00 1.766322612762451172e+00 -5.673742890357971191e-01 6.420000000000000000e+02
3.214881658554077148e+00 1.743304967880249023e+00 -5.661623477935791016e-01 6.310000000000000000e+02
3.227255105972290039e+00 1.724474549293518066e+00 -5.665086507797241211e-01 5.490000000000000000e+02
3.151504039764404297e+00 1.659204006195068359e+00 -5.493685007095336914e-01 3.410000000000000000e+02
3.145889043807983398e+00 1.631670832633972168e+00 -5.462521314620971680e-01 5.770000000000000000e+02
3.168996572494506836e+00 1.619060635566711426e+00 -5.488491058349609375e-01 6.350000000000000000e+02
3.196465969085693359e+00 1.608442187309265137e+00 -5.523117780685424805e-01 5.670000000000000000e+02
3.226570844650268555e+00 1.598859548568725586e+00 -5.562937855720520020e-01 6.500000000000000000e+02
3.327485799789428711e+00 1.623527765274047852e+00 -5.741264820098876953e-01 8.250000000000000000e+02
3.161613941192626953e+00 1.518620610237121582e+00 -5.398462414741516113e-01 3.100000000000000000e+02
3.026638507843017578e+00 1.430973291397094727e+00 -5.117987394332885742e-01 3.140000000000000000e+02
3.015717983245849609e+00 1.403231143951416016e+00 -5.079898238182067871e-01 3.260000000000000000e+02
3.034121036529541016e+00 1.389212369918823242e+00 -5.098943114280700684e-01 2.760000000000000000e+02
3.064138412475585938e+00 1.380280733108520508e+00 -5.140494704246520996e-01 2.480000000000000000e+02
3.346271276473999023e+00 1.482789516448974609e+00 -5.666817426681518555e-01 4.100000000000000000e+02
3.469063282012939453e+00 1.511822700500488281e+00 -5.884964466094970703e-01 6.740000000000000000e+02
3.500000000000000000e+00 1.499821782112121582e+00 -5.926516056060791016e-01 6.510000000000000000e+02
3.530919075012207031e+00 1.487497687339782715e+00 -5.968068242073059082e-01 7.360000000000000000e+02
3.520871162414550781e+00 1.457889199256896973e+00 -5.931710600852966309e-01 7.440000000000000000e+02
3.532487154006958008e+00 1.437372088432312012e+00 -5.936904549598693848e-01 8.440000000000000000e+02
3.486371278762817383e+00 1.393726825714111328e+00 -5.833024978637695312e-01 3.500000000000000000e+02
3.456355810165405273e+00 1.357184410095214844e+00 -5.760309100151062012e-01 3.240000000000000000e+02
3.366296052932739258e+00 1.298022747039794922e+00 -5.575057268142700195e-01 3.060000000000000000e+02
3.368670701980590820e+00 1.275250196456909180e+00 -5.564669370651245117e-01 2.730000000000000000e+02
3.342274427413940430e+00 1.241859197616577148e+00 -5.500610470771789551e-01 2.550000000000000000e+02
3.302642822265625000e+00 1.204115748405456543e+00 -5.412312746047973633e-01 2.110000000000000000e+02
3.307187080383300781e+00 1.182832956314086914e+00 -5.407118797302246094e-01 1.010000000000000000e+02
3.321817159652709961e+00 1.165127158164978027e+00 -5.420969128608703613e-01 8.700000000000000000e+01
3.300964117050170898e+00 1.135110616683959961e+00 -5.369029641151428223e-01 6.500000000000000000e+01
3.293867588043212891e+00 1.110114693641662598e+00 -5.343059897422790527e-01 5.730000000000000000e+02
3.296876430511474609e+00 1.088647127151489258e+00 -5.336134433746337891e-01 2.200000000000000000e+01
3.129200458526611328e+00 -1.928704857826232910e+00 -5.694518685340881348e-01 4.200000000000000000e+01
3.112295389175415039e+00 -1.944738268852233887e+00 -5.684130787849426270e-01 6.400000000000000000e+01
3.067020177841186523e+00 -1.942721962928771973e+00 -5.614877939224243164e-01 5.000000000000000000e+01
3.050069093704223633e+00 -1.958312273025512695e+00 -5.604490041732788086e-01 4.100000000000000000e+01
3.098262310028076172e+00 -2.016197204589843750e+00 -5.730876326560974121e-01 9.800000000000000000e+01
3.182037353515625000e+00 -2.098599672317504883e+00 -5.933441519737243652e-01 1.520000000000000000e+02
3.187116861343383789e+00 -2.130122661590576172e+00 -5.971530675888061523e-01 3.250000000000000000e+02
3.087538957595825195e+00 -2.091106653213500977e+00 -5.788010358810424805e-01 4.700000000000000000e+01
3.089268445968627930e+00 -2.120041131973266602e+00 -5.819174051284790039e-01 7.900000000000000000e+01
3.123915910720825195e+00 -2.172123670578002930e+00 -5.921322107315063477e-01 2.770000000000000000e+02
3.166777610778808594e+00 -2.260062456130981445e+00 -6.071947813034057617e-01 3.600000000000000000e+01
3.322872161865234375e+00 -2.402339696884155273e+00 -6.440719962120056152e-01 2.900000000000000000e+01
2.842223644256591797e+00 -2.108519554138183594e+00 -5.453864336013793945e-01 2.000000000000000000e+01
2.803246021270751953e+00 -2.106398582458496094e+00 -5.396730899810791016e-01 2.700000000000000000e+01
2.775375843048095703e+00 -2.112228393554687500e+00 -5.363835692405700684e-01 2.800000000000000000e+01
2.732717514038085938e+00 -2.106374263763427734e+00 -5.298045277595520020e-01 2.700000000000000000e+01
3.720144748687744141e+00 2.794021368026733398e+00 -7.988563776016235352e-01 8.620000000000000000e+02
3.740375757217407227e+00 2.773484230041503906e+00 -7.995962500572204590e-01 8.950000000000000000e+02
3.758116006851196289e+00 2.751061916351318359e+00 -7.997812628746032715e-01 8.530000000000000000e+02
3.777314901351928711e+00 2.729677915573120117e+00 -8.003361821174621582e-01 8.250000000000000000e+02
3.794792890548706055e+00 2.707020282745361328e+00 -8.005211949348449707e-01 8.530000000000000000e+02
3.798475742340087891e+00 2.674630641937255859e+00 -7.975614666938781738e-01 7.950000000000000000e+02
3.826919555664062500e+00 2.659687519073486328e+00 -8.003361821174621582e-01 8.070000000000000000e+02
3.847218751907348633e+00 2.638935804367065430e+00 -8.012610673904418945e-01 8.010000000000000000e+02
3.858455896377563477e+00 2.611974000930786133e+00 -8.001512289047241211e-01 8.110000000000000000e+02
3.867056131362915039e+00 2.583335876464843750e+00 -7.984864115715026855e-01 7.510000000000000000e+02
3.883654832839965820e+00 2.560100317001342773e+00 -7.986713647842407227e-01 7.230000000000000000e+02
3.911646366119384766e+00 2.544261455535888672e+00 -8.014460802078247070e-01 7.240000000000000000e+02
3.927184104919433594e+00 2.520212173461914062e+00 -8.014460802078247070e-01 7.340000000000000000e+02
3.945064783096313477e+00 2.497645139694213867e+00 -8.020009994506835938e-01 7.460000000000000000e+02
3.961982727050781250e+00 2.474433183670043945e+00 -8.023709654808044434e-01 7.080000000000000000e+02
3.960357904434204102e+00 2.439765453338623047e+00 -7.986713647842407227e-01 6.390000000000000000e+02
3.785457611083984375e+00 2.300068140029907227e+00 -7.568657398223876953e-01 2.670000000000000000e+02
3.072058677673339844e+00 1.840775966644287109e+00 -5.972275137901306152e-01 5.690000000000000000e+02
3.073989629745483398e+00 1.816390872001647949e+00 -5.951927304267883301e-01 4.310000000000000000e+02
3.032435417175292969e+00 1.766813874244689941e+00 -5.837239623069763184e-01 5.060000000000000000e+02
2.997207164764404297e+00 1.721733450889587402e+00 -5.737349987030029297e-01 4.590000000000000000e+02
2.901686906814575195e+00 1.643244743347167969e+00 -5.507974028587341309e-01 2.950000000000000000e+02
2.866239786148071289e+00 1.600014686584472656e+00 -5.409934520721435547e-01 3.160000000000000000e+02
2.876003503799438477e+00 1.582397699356079102e+00 -5.409934520721435547e-01 3.480000000000000000e+02
2.882203340530395508e+00 1.562846779823303223e+00 -5.402535200119018555e-01 3.910000000000000000e+02
2.885671615600585938e+00 1.541889548301696777e+00 -5.389586091041564941e-01 3.630000000000000000e+02
2.903773307800292969e+00 1.528733849525451660e+00 -5.408084392547607422e-01 3.740000000000000000e+02
2.920949697494506836e+00 1.514961242675781250e+00 -5.424732565879821777e-01 3.660000000000000000e+02
2.934565782546997070e+00 1.499246358871459961e+00 -5.433982014656066895e-01 4.510000000000000000e+02
2.937565088272094727e+00 1.478118896484375000e+00 -5.421032905578613281e-01 3.820000000000000000e+02
2.954503774642944336e+00 1.463994741439819336e+00 -5.437681078910827637e-01 4.640000000000000000e+02
2.947534322738647461e+00 1.438079595565795898e+00 -5.404384732246398926e-01 5.170000000000000000e+02
2.953645229339599609e+00 1.418689966201782227e+00 -5.398835539817810059e-01 5.030000000000000000e+02
2.967624902725219727e+00 1.403061151504516602e+00 -5.409934520721435547e-01 4.790000000000000000e+02
2.966377735137939453e+00 1.380263686180114746e+00 -5.389586091041564941e-01 3.980000000000000000e+02
2.981938600540161133e+00 1.365310430526733398e+00 -5.404384732246398926e-01 4.420000000000000000e+02
3.009075403213500977e+00 1.355466842651367188e+00 -5.443230867385864258e-01 3.850000000000000000e+02
3.053272724151611328e+00 1.352908372879028320e+00 -5.517222881317138672e-01 3.150000000000000000e+02
3.101154088973999023e+00 1.351428747177124023e+00 -5.598614215850830078e-01 3.060000000000000000e+02
3.141001701354980469e+00 1.345927119255065918e+00 -5.663357377052307129e-01 3.300000000000000000e+02
3.145578622817993164e+00 1.325102329254150391e+00 -5.655958652496337891e-01 3.620000000000000000e+02
3.152742147445678711e+00 1.305400371551513672e+00 -5.654108524322509766e-01 3.700000000000000000e+02
3.165243625640869141e+00 1.287883520126342773e+00 -5.663357377052307129e-01 4.180000000000000000e+02
3.175823926925659180e+00 1.269532442092895508e+00 -5.668907165527343750e-01 3.720000000000000000e+02
3.203677177429199219e+00 1.257926940917968750e+00 -5.709602832794189453e-01 4.210000000000000000e+02
3.212252140045166016e+00 1.238599538803100586e+00 -5.711452364921569824e-01 4.410000000000000000e+02
3.218872547149658203e+00 1.218518137931823730e+00 -5.709602832794189453e-01 4.200000000000000000e+02
3.230894565582275391e+00 1.200456738471984863e+00 -5.718851685523986816e-01 4.150000000000000000e+02
3.252971410751342773e+00 1.185997843742370605e+00 -5.748448967933654785e-01 4.070000000000000000e+02
3.268514871597290039e+00 1.168995380401611328e+00 -5.765097141265869141e-01 4.450000000000000000e+02
3.281190156936645508e+00 1.150870561599731445e+00 -5.776195526123046875e-01 4.490000000000000000e+02
3.320714950561523438e+00 1.141905665397644043e+00 -5.840939283370971680e-01 2.200000000000000000e+02
3.269922733306884766e+00 1.102040767669677734e+00 -5.726251006126403809e-01 5.360000000000000000e+02
3.060461044311523438e+00 -1.886349916458129883e+00 -5.998172760009765625e-01 4.300000000000000000e+01
3.060497760772705078e+00 -1.912382125854492188e+00 -6.024069786071777344e-01 5.400000000000000000e+01
3.079426288604736328e+00 -1.950577974319458008e+00 -6.092512607574462891e-01 5.800000000000000000e+01
3.036799430847167969e+00 -1.949795126914978027e+00 -6.024069786071777344e-01 4.800000000000000000e+01
3.029721260070800781e+00 -1.971607327461242676e+00 -6.035168766975402832e-01 6.500000000000000000e+01
3.191504240036010742e+00 -2.104841470718383789e+00 -6.427327394485473633e-01 1.800000000000000000e+02
3.176077842712402344e+00 -2.122746706008911133e+00 -6.421778202056884766e-01 3.590000000000000000e+02
3.181709527969360352e+00 -2.154867172241210938e+00 -6.464323401451110840e-01 5.280000000000000000e+02
3.204894065856933594e+00 -2.199367284774780273e+00 -6.547564864158630371e-01 2.040000000000000000e+02
3.198601245880126953e+00 -2.224039077758789062e+00 -6.564213037490844727e-01 5.540000000000000000e+02
3.253190279006958008e+00 -2.291721820831298828e+00 -6.721446514129638672e-01 2.230000000000000000e+02
3.076668500900268555e+00 -2.195771217346191406e+00 -6.345936059951782227e-01 4.100000000000000000e+01
2.822713613510131836e+00 -2.067322254180908203e+00 -5.816891789436340332e-01 4.850000000000000000e+02
2.849443197250366211e+00 -2.113873720169067383e+00 -5.909381508827209473e-01 8.340000000000000000e+02
2.832490444183349609e+00 -2.128366708755493164e+00 -5.900132656097412109e-01 8.540000000000000000e+02
2.816249132156372070e+00 -2.143326282501220703e+00 -5.892733335494995117e-01 8.610000000000000000e+02
2.801488161087036133e+00 -2.159366369247436523e+00 -5.889033675193786621e-01 9.260000000000000000e+02
