# .PCD v.7 - Point Cloud Data file format
VERSION .7
FIELDS x y z intensity
SIZE 4 4 4 4
TYPE F F F F
COUNT 1 1 1 1
WIDTH 468
HEIGHT 1
VIEWPOINT 0 0 0 1 0 0 0
POINTS 468
DATA ascii
3.358177185058593750e+00 -6.010606288909912109e-01 -7.880827784538269043e-02 1.300000000000000000e+02
3.347550392150878906e+00 -6.203794479370117188e-01 -7.849317789077758789e-02 7.900000000000000000e+01
3.903821229934692383e+00 -2.744761943817138672e+00 -1.401177197694778442e-01 2.670000000000000000e+02
3.894228696823120117e+00 -2.773880481719970703e+00 -1.405228525400161743e-01 8.400000000000000000e+01
3.761299848556518555e+00 -2.714118242263793945e+00 -1.340858042240142822e-01 2.700000000000000000e+01
3.742962598800659180e+00 -2.735966920852661133e+00 -1.339957863092422485e-01 4.000000000000000000e+01
3.725301742553710938e+00 -2.758287191390991211e+00 -1.339507699012756348e-01 1.380000000000000000e+02
3.747464895248413086e+00 -2.810466766357421875e+00 -1.361564695835113525e-01 7.600000000000000000e+01
3.738899469375610352e+00 -2.840055704116821289e+00 -1.366516202688217163e-01 6.900000000000000000e+01
3.643022298812866211e+00 -2.802630901336669922e+00 -1.321952044963836670e-01 8.100000000000000000e+01
3.651760101318359375e+00 -2.845195531845092773e+00 -1.336806863546371460e-01 8.900000000000000000e+01
3.683637380599975586e+00 -2.906538724899291992e+00 -1.365165859460830688e-01 5.500000000000000000e+01
3.560383319854736328e+00 -2.844888448715209961e+00 -1.304396539926528931e-01 2.300000000000000000e+01
3.571592092514038086e+00 -2.889934062957763672e+00 -1.321051865816116333e-01 2.700000000000000000e+01
3.544520616531372070e+00 -2.904196023941040039e+00 -1.315650045871734619e-01 1.500000000000000000e+01
3.605816602706909180e+00 -2.991598844528198242e+00 -1.362014859914779663e-01 1.600000000000000000e+01
3.330295562744140625e+00 -2.903870582580566406e+00 -1.241826713085174561e-01 1.800000000000000000e+01
3.375879526138305664e+00 -4.049117118120193481e-02 -8.720979839563369751e-02 6.500000000000000000e+01
3.387551784515380859e+00 -6.142229959368705750e-02 -8.778553456068038940e-02 6.600000000000000000e+01
3.365143060684204102e+00 -8.167251944541931152e-02 -8.673001825809478760e-02 1.030000000000000000e+02
3.324643135070800781e+00 -1.011026799678802490e-01 -8.481089025735855103e-02 1.490000000000000000e+02
3.313978433609008789e+00 -1.211350411176681519e-01 -8.433111011981964111e-02 2.150000000000000000e+02
3.336125135421752930e+00 -1.424481272697448730e-01 -8.543460816144943237e-02 2.750000000000000000e+02
3.312242269515991211e+00 -1.617935299873352051e-01 -8.433111011981964111e-02 3.580000000000000000e+02
3.367038011550903320e+00 -1.851886063814163208e-01 -8.701788634061813354e-02 4.740000000000000000e+02
3.360853433609008789e+00 -2.055397629737854004e-01 -8.677799254655838013e-02 5.430000000000000000e+02
3.358532428741455078e+00 -2.260905653238296509e-01 -8.673001825809478760e-02 5.950000000000000000e+02
3.362062931060791016e+00 -2.470601350069046021e-01 -8.696991205215454102e-02 6.460000000000000000e+02
3.371436119079589844e+00 -2.685576975345611572e-01 -8.749766647815704346e-02 6.850000000000000000e+02
3.373705625534057617e+00 -2.895812690258026123e-01 -8.768957853317260742e-02 7.750000000000000000e+02
3.363908052444458008e+00 -3.095438778400421143e-01 -8.730575442314147949e-02 7.620000000000000000e+02
3.368903875350952148e+00 -3.308623433113098145e-01 -8.764160424470901489e-02 8.240000000000000000e+02
3.372771024703979492e+00 -3.521499633789062500e-01 -8.792947232723236084e-02 8.330000000000000000e+02
3.375510692596435547e+00 -3.733876049518585205e-01 -8.816935867071151733e-02 8.180000000000000000e+02
3.363235235214233398e+00 -3.929327428340911865e-01 -8.768957853317260742e-02 8.110000000000000000e+02
3.368691682815551758e+00 -4.145381152629852295e-01 -8.807340264320373535e-02 8.170000000000000000e+02
3.363112926483154297e+00 -4.348158538341522217e-01 -8.792947232723236084e-02 7.880000000000000000e+02
3.370279550552368164e+00 -4.567853212356567383e-01 -8.840925246477127075e-02 8.020000000000000000e+02
3.362468719482421875e+00 -4.767550230026245117e-01 -8.816935867071151733e-02 8.410000000000000000e+02
3.355527877807617188e+00 -4.967924356460571289e-01 -8.797744661569595337e-02 7.800000000000000000e+02
3.360313653945922852e+00 -5.185914039611816406e-01 -8.836127817630767822e-02 8.700000000000000000e+02
3.355095863342285156e+00 -5.388832092285156250e-01 -8.826531469821929932e-02 7.350000000000000000e+02
3.352711439132690430e+00 -5.596240758895874023e-01 -8.831329643726348877e-02 7.440000000000000000e+02
3.352167129516601562e+00 -5.806970000267028809e-01 -8.845723420381546021e-02 6.950000000000000000e+02
3.349524021148681641e+00 -6.014311313629150391e-01 -8.850520849227905273e-02 1.560000000000000000e+02
3.381123065948486328e+00 -6.285458803176879883e-01 -9.023242443799972534e-02 8.900000000000000000e+01
3.944312572479248047e+00 -2.704572677612304688e+00 -1.547629982233047485e-01 1.050000000000000000e+02
3.947330236434936523e+00 -2.742402076721191406e+00 -1.559144854545593262e-01 5.200000000000000000e+01
3.833232641220092773e+00 -2.698150873184204102e+00 -1.502050757408142090e-01 2.400000000000000000e+01
3.732028722763061523e+00 -2.661304712295532227e+00 -1.452153623104095459e-01 7.700000000000000000e+01
3.720487117767333984e+00 -2.687663555145263672e+00 -1.455032229423522949e-01 9.600000000000000000e+01
3.750676870346069336e+00 -2.744655370712280273e+00 -1.482859551906585693e-01 1.090000000000000000e+02
3.704878330230712891e+00 -2.746203422546386719e+00 -1.465587466955184937e-01 6.700000000000000000e+01
3.691153287887573242e+00 -2.771283388137817383e+00 -1.467506587505340576e-01 5.600000000000000000e+01
3.686800479888916016e+00 -2.803553819656372070e+00 -1.475183069705963135e-01 2.800000000000000000e+01
3.656056880950927734e+00 -2.851657152175903320e+00 -1.477582007646560669e-01 1.700000000000000000e+01
3.625467061996459961e+00 -2.900051593780517578e+00 -1.480460613965988159e-01 1.500000000000000000e+01
3.722071886062622070e+00 -3.091382980346679688e+00 -1.574497818946838379e-01 2.700000000000000000e+01
3.509631633758544922e+00 -2.951505422592163086e+00 -1.453113108873367310e-01 1.700000000000000000e+01
3.893746376037597656e+00 -3.315561532974243164e+00 -1.706917434930801392e-01 1.800000000000000000e+01
3.338676214218139648e+00 -9.305341518484055996e-04 -9.530056267976760864e-02 6.220000000000000000e+02
3.381551027297973633e+00 -2.168958634138107300e-02 -9.749104827642440796e-02 8.490000000000000000e+02
3.386347532272338867e+00 -4.250040650367736816e-02 -9.774576127529144287e-02 9.750000000000000000e+02
3.388020038604736328e+00 -6.331507116556167603e-02 -9.784764051437377930e-02 9.540000000000000000e+02
3.388566017150878906e+00 -8.412711322307586670e-02 -9.789858013391494751e-02 9.310000000000000000e+02
3.395972013473510742e+00 -1.051642894744873047e-01 -9.830611199140548706e-02 1.036000000000000000e+03
3.399254798889160156e+00 -1.261475533246994019e-01 -9.850987792015075684e-02 1.049000000000000000e+03
3.395423412322998047e+00 -1.468732804059982300e-01 -9.835705906152725220e-02 1.021000000000000000e+03
3.390468358993530273e+00 -1.675075143575668335e-01 -9.815329313278198242e-02 1.014000000000000000e+03
3.408322811126708984e+00 -1.893595755100250244e-01 -9.912118315696716309e-02 1.097000000000000000e+03
3.393141508102416992e+00 -2.094085067510604858e-01 -9.840799868106842041e-02 1.022000000000000000e+03
3.374853849411010742e+00 -2.290755510330200195e-01 -9.754199534654617310e-02 9.650000000000000000e+02
3.379360437393188477e+00 -2.502211332321166992e-01 -9.784764051437377930e-02 9.440000000000000000e+02
3.397671699523925781e+00 -2.725479304790496826e-01 -9.886647015810012817e-02 1.009000000000000000e+03
3.396930456161499023e+00 -2.934764325618743896e-01 -9.891741722822189331e-02 9.750000000000000000e+02
3.399043560028076172e+00 -3.146821558475494385e-01 -9.912118315696716309e-02 9.620000000000000000e+02
3.393073320388793945e+00 -3.351399004459381104e-01 -9.891741722822189331e-02 9.520000000000000000e+02
3.380027294158935547e+00 -3.548067510128021240e-01 -9.835705906152725220e-02 9.380000000000000000e+02
3.377786636352539062e+00 -3.755395114421844482e-01 -9.835705906152725220e-02 9.320000000000000000e+02
3.385337591171264648e+00 -3.974221050739288330e-01 -9.886647015810012817e-02 9.400000000000000000e+02
3.378870725631713867e+00 -4.176967442035675049e-01 -9.866270422935485840e-02 9.300000000000000000e+02
3.382186651229858398e+00 -4.391925930976867676e-01 -9.896835684776306152e-02 9.250000000000000000e+02
3.379428148269653320e+00 -4.599370360374450684e-01 -9.896835684776306152e-02 8.830000000000000000e+02
3.371598720550537109e+00 -4.799606502056121826e-01 -9.871365129947662354e-02 8.660000000000000000e+02
3.361675262451171875e+00 -4.996120035648345947e-01 -9.835705906152725220e-02 8.870000000000000000e+02
3.361507177352905273e+00 -5.206879377365112305e-01 -9.850987792015075684e-02 8.610000000000000000e+02
3.373038768768310547e+00 -5.436871051788330078e-01 -9.927400201559066772e-02 8.700000000000000000e+02
3.360774278640747070e+00 -5.628890991210937500e-01 -9.881553053855895996e-02 7.820000000000000000e+02
3.356273174285888672e+00 -5.833289027214050293e-01 -9.876459091901779175e-02 7.640000000000000000e+02
3.355579614639282227e+00 -6.044425964355468750e-01 -9.891741722822189331e-02 1.600000000000000000e+02
3.417587280273437500e+00 -6.372835040092468262e-01 -1.023304983973503113e-01 1.050000000000000000e+02
3.936514139175415039e+00 -2.666892528533935547e+00 -1.675356924533843994e-01 5.200000000000000000e+01
3.914312601089477539e+00 -2.687040090560913086e+00 -1.671790927648544312e-01 3.100000000000000000e+01
3.803462266921997070e+00 -2.645431041717529297e+00 -1.613208204507827759e-01 5.000000000000000000e+01
3.864715814590454102e+00 -2.723367452621459961e+00 -1.661602705717086792e-01 1.120000000000000000e+02
3.736572980880737305e+00 -2.667535781860351562e+00 -1.591812670230865479e-01 5.500000000000000000e+01
3.721753358840942383e+00 -2.691583156585693359e+00 -1.592831611633300781e-01 6.200000000000000000e+01
3.730143785476684570e+00 -2.732664346694946289e+00 -1.608623415231704712e-01 2.600000000000000000e+01
3.707691907882690430e+00 -2.751334905624389648e+00 -1.605057567358016968e-01 2.700000000000000000e+01
3.654814004898071289e+00 -2.747032165527343750e+00 -1.582133919000625610e-01 1.300000000000000000e+01
3.688748359680175781e+00 -2.808120012283325195e+00 -1.614736467599868774e-01 2.000000000000000000e+01
3.674821376800537109e+00 -2.905894279479980469e+00 -1.639697849750518799e-01 1.700000000000000000e+01
3.923538684844970703e+00 -3.141873359680175781e+00 -1.813917905092239380e-01 2.000000000000000000e+01
3.347910404205322266e+00 3.887088969349861145e-02 -1.057040691375732422e-01 1.060000000000000000e+02
3.341096162796020508e+00 1.828846149146556854e-02 -1.053267419338226318e-01 1.340000000000000000e+02
3.344141006469726562e+00 -2.213999629020690918e-03 -1.054884493350982666e-01 7.180000000000000000e+02
3.384005546569824219e+00 -2.299877814948558807e-02 -1.076446324586868286e-01 9.110000000000000000e+02
3.381803750991821289e+00 -4.373668134212493896e-02 -1.075368225574493408e-01 9.120000000000000000e+02
3.384466886520385742e+00 -6.454288959503173828e-02 -1.076985374093055725e-01 9.690000000000000000e+02
3.378017663955688477e+00 -8.515827357769012451e-02 -1.073751077055931091e-01 9.040000000000000000e+02
3.379427671432495117e+00 -1.059460788965225220e-01 -1.074829176068305969e-01 9.010000000000000000e+02
3.385699033737182617e+00 -1.269407272338867188e-01 -1.078602522611618042e-01 8.870000000000000000e+02
3.391839504241943359e+00 -1.480163037776947021e-01 -1.082375869154930115e-01 9.940000000000000000e+02
3.364937305450439453e+00 -1.675382554531097412e-01 -1.068360656499862671e-01 8.580000000000000000e+02
3.370824813842773438e+00 -1.885713487863540649e-01 -1.072134003043174744e-01 9.300000000000000000e+02
3.370600938796997070e+00 -2.093125283718109131e-01 -1.072673052549362183e-01 8.430000000000000000e+02
3.369253158569335938e+00 -2.299902141094207764e-01 -1.072673052549362183e-01 8.260000000000000000e+02
3.373753547668457031e+00 -2.511030435562133789e-01 -1.075907275080680847e-01 8.300000000000000000e+02
3.374139785766601562e+00 -2.719594240188598633e-01 -1.076985374093055725e-01 7.970000000000000000e+02
3.364449024200439453e+00 -2.919681668281555176e-01 -1.072673052549362183e-01 8.130000000000000000e+02
3.357622861862182617e+00 -3.121451437473297119e-01 -1.069977805018424988e-01 7.800000000000000000e+02
3.364587545394897461e+00 -3.336266875267028809e-01 -1.074829176068305969e-01 7.400000000000000000e+02
3.366449356079101562e+00 -3.546830713748931885e-01 -1.076985374093055725e-01 7.600000000000000000e+02
3.356270551681518555e+00 -3.744479715824127197e-01 -1.072673052549362183e-01 7.470000000000000000e+02
3.346967697143554688e+00 -3.942179977893829346e-01 -1.068899706006050110e-01 7.540000000000000000e+02
3.350431680679321289e+00 -4.154836237430572510e-01 -1.072134003043174744e-01 7.640000000000000000e+02
3.363662481307983398e+00 -4.380947649478912354e-01 -1.080758720636367798e-01 7.620000000000000000e+02
3.375751972198486328e+00 -4.607489407062530518e-01 -1.088844388723373413e-01 7.790000000000000000e+02
3.369895696640014648e+00 -4.810306131839752197e-01 -1.087227240204811096e-01 7.910000000000000000e+02
3.357004165649414062e+00 -5.002286434173583984e-01 -1.081836819648742676e-01 7.390000000000000000e+02
3.355844974517822266e+00 -5.211235880851745605e-01 -1.082914844155311584e-01 7.180000000000000000e+02
3.357513189315795898e+00 -5.425004959106445312e-01 -1.085610091686248779e-01 7.450000000000000000e+02
3.377756357192993164e+00 -5.670558810234069824e-01 -1.098547205328941345e-01 6.280000000000000000e+02
3.369294643402099609e+00 -5.869146585464477539e-01 -1.095851957798004150e-01 6.040000000000000000e+02
3.944903135299682617e+00 -2.569916486740112305e+00 -1.791220456361770630e-01 1.080000000000000000e+02
3.954894542694091797e+00 -2.611126184463500977e+00 -1.807930916547775269e-01 8.600000000000000000e+01
3.868250370025634766e+00 -2.588152885437011719e+00 -1.762112081050872803e-01 1.500000000000000000e+01
3.809316158294677734e+00 -2.582705259323120117e+00 -1.734081655740737915e-01 1.500000000000000000e+01
3.811505556106567383e+00 -2.618467569351196289e+00 -1.745940595865249634e-01 2.700000000000000000e+01
3.791269063949584961e+00 -2.638953208923339844e+00 -1.743245422840118408e-01 6.300000000000000000e+01
3.788063049316406250e+00 -2.671372652053833008e+00 -1.751870214939117432e-01 4.300000000000000000e+01
3.862606763839721680e+00 -2.759568691253662109e+00 -1.812243163585662842e-01 1.600000000000000000e+01
3.785737037658691406e+00 -2.739900588989257812e+00 -1.772353947162628174e-01 2.200000000000000000e+01
3.801874399185180664e+00 -2.787280559539794922e+00 -1.794454753398895264e-01 1.800000000000000000e+01
3.759044885635375977e+00 -2.791508197784423828e+00 -1.777205318212509155e-01 2.300000000000000000e+01
3.738009929656982422e+00 -2.847712993621826172e+00 -1.786369085311889648e-01 1.600000000000000000e+01
3.302659273147583008e+00 2.192732179537415504e-03 -1.130375638604164124e-01 3.440000000000000000e+02
3.359517574310302734e+00 -1.839205063879489899e-02 -1.162789836525917053e-01 7.360000000000000000e+02
3.361338138580322266e+00 -3.902879357337951660e-02 -1.163927167654037476e-01 7.630000000000000000e+02
3.365028142929077148e+00 -5.972430482506752014e-02 -1.166201829910278320e-01 8.320000000000000000e+02
3.367592573165893555e+00 -8.044257014989852905e-02 -1.167907863855361938e-01 8.450000000000000000e+02
3.375019073486328125e+00 -1.013451293110847473e-01 -1.172457188367843628e-01 8.740000000000000000e+02
3.374333620071411133e+00 -1.220519468188285828e-01 -1.172457188367843628e-01 8.660000000000000000e+02
3.377511262893676758e+00 -1.429236084222793579e-01 -1.174731925129890442e-01 8.880000000000000000e+02
3.370587587356567383e+00 -1.633540689945220947e-01 -1.171319857239723206e-01 8.880000000000000000e+02
3.368524789810180664e+00 -1.839779317378997803e-01 -1.170751228928565979e-01 9.070000000000000000e+02
3.370322227478027344e+00 -2.048254907131195068e-01 -1.172457188367843628e-01 9.220000000000000000e+02
3.369001865386962891e+00 -2.255015373229980469e-01 -1.172457188367843628e-01 8.790000000000000000e+02
3.369546175003051758e+00 -2.463149726390838623e-01 -1.173594519495964050e-01 9.260000000000000000e+02
3.370957136154174805e+00 -2.672226130962371826e-01 -1.175300553441047668e-01 8.730000000000000000e+02
3.360301494598388672e+00 -2.871350347995758057e-01 -1.170182526111602783e-01 8.480000000000000000e+02
3.357482194900512695e+00 -3.076568245887756348e-01 -1.169613897800445557e-01 8.680000000000000000e+02
3.361492872238159180e+00 -3.288362324237823486e-01 -1.173025891184806824e-01 8.800000000000000000e+02
3.367356061935424805e+00 -3.502833247184753418e-01 -1.177575215697288513e-01 8.620000000000000000e+02
3.364151000976562500e+00 -3.708288967609405518e-01 -1.177006587386131287e-01 8.390000000000000000e+02
3.353878974914550781e+00 -3.905389904975891113e-01 -1.172457188367843628e-01 8.320000000000000000e+02
3.354392290115356445e+00 -4.114757776260375977e-01 -1.174163222312927246e-01 7.870000000000000000e+02
3.358735561370849609e+00 -4.329446554183959961e-01 -1.178143918514251709e-01 8.340000000000000000e+02
3.363930940628051758e+00 -4.546161890029907227e-01 -1.182693317532539368e-01 8.320000000000000000e+02
3.361078023910522461e+00 -4.752483069896697998e-01 -1.182693317532539368e-01 8.030000000000000000e+02
3.359086275100708008e+00 -4.960085451602935791e-01 -1.183261945843696594e-01 7.460000000000000000e+02
3.361900091171264648e+00 -5.175224542617797852e-01 -1.186673939228057861e-01 7.830000000000000000e+02
3.357675552368164062e+00 -5.379828214645385742e-01 -1.186105310916900635e-01 7.640000000000000000e+02
3.355296134948730469e+00 -5.587391257286071777e-01 -1.186673939228057861e-01 7.480000000000000000e+02
3.359674692153930664e+00 -5.806778073310852051e-01 -1.191223338246345520e-01 7.680000000000000000e+02
3.399287700653076172e+00 -6.090348362922668457e-01 -1.216244846582412720e-01 2.270000000000000000e+02
3.302233934402465820e+00 -6.125681996345520020e-01 -1.162221133708953857e-01 1.120000000000000000e+02
3.948269844055175781e+00 -2.565155506134033203e+00 -1.931063532829284668e-01 1.060000000000000000e+02
3.857414484024047852e+00 -2.539910793304443359e+00 -1.879883110523223877e-01 2.400000000000000000e+01
3.858598709106445312e+00 -2.643782138824462891e+00 -1.913434714078903198e-01 7.200000000000000000e+01
3.774238586425781250e+00 -2.620145082473754883e+00 -1.866235136985778809e-01 4.300000000000000000e+01
3.764623165130615234e+00 -2.647849559783935547e+00 -1.870784461498260498e-01 9.000000000000000000e+01
3.794224977493286133e+00 -2.846574783325195312e+00 -1.950967013835906982e-01 2.300000000000000000e+01
3.988186359405517578e+00 -3.187934398651123047e+00 -2.157394289970397949e-01 2.300000000000000000e+01
3.402253150939941406e+00 -2.931103706359863281e+00 -1.807093322277069092e-01 1.200000000000000000e+01
3.263515949249267578e+00 -2.882082223892211914e+00 -1.729185581207275391e-01 4.000000000000000000e+01
3.361955165863037109e+00 3.514965646900236607e-04 -1.269692182540893555e-01 4.540000000000000000e+02
3.360895872116088867e+00 -2.027100883424282074e-02 -1.269092112779617310e-01 7.560000000000000000e+02
3.359710216522216797e+00 -4.088050127029418945e-02 -1.268492192029953003e-01 7.530000000000000000e+02
3.362390041351318359e+00 -6.154948472976684570e-02 -1.270292252302169800e-01 8.220000000000000000e+02
3.364942789077758789e+00 -8.225288987159729004e-02 -1.272092312574386597e-01 8.120000000000000000e+02
3.369363546371459961e+00 -1.030510663986206055e-01 -1.275092512369155884e-01 8.100000000000000000e+02
3.369665384292602539e+00 -1.237598434090614319e-01 -1.275692582130432129e-01 8.160000000000000000e+02
3.367845296859741211e+00 -1.443905830383300781e-01 -1.275092512369155884e-01 8.190000000000000000e+02
3.365898847579956055e+00 -1.650036573410034180e-01 -1.274492442607879639e-01 8.300000000000000000e+02
3.368809700012207031e+00 -1.858734786510467529e-01 -1.276892572641372681e-01 8.740000000000000000e+02
3.366609573364257812e+00 -2.064794450998306274e-01 -1.276292502880096436e-01 8.320000000000000000e+02
3.371254682540893555e+00 -2.275363057851791382e-01 -1.279892772436141968e-01 8.580000000000000000e+02
3.368799686431884766e+00 -2.481442689895629883e-01 -1.279292702674865723e-01 8.280000000000000000e+02
3.364228487014770508e+00 -2.685717046260833740e-01 -1.277492642402648926e-01 8.270000000000000000e+02
3.360528230667114258e+00 -2.890380024909973145e-01 -1.276292502880096436e-01 8.630000000000000000e+02
3.355709552764892578e+00 -3.093773126602172852e-01 -1.274492442607879639e-01 7.790000000000000000e+02
3.359708547592163086e+00 -3.305484354496002197e-01 -1.278092712163925171e-01 7.910000000000000000e+02
3.367544889450073242e+00 -3.521957993507385254e-01 -1.284092962741851807e-01 8.250000000000000000e+02
3.365320444107055664e+00 -3.728520274162292480e-01 -1.284092962741851807e-01 7.970000000000000000e+02
3.359003543853759766e+00 -3.930300176143646240e-01 -1.281692832708358765e-01 7.930000000000000000e+02
3.352566003799438477e+00 -4.131445288658142090e-01 -1.279292702674865723e-01 7.680000000000000000e+02
3.354917526245117188e+00 -4.343487918376922607e-01 -1.282292902469635010e-01 7.810000000000000000e+02
3.353178262710571289e+00 -4.550602734088897705e-01 -1.282892972230911255e-01 7.640000000000000000e+02
3.352299690246582031e+00 -4.759071171283721924e-01 -1.284092962741851807e-01 7.480000000000000000e+02
3.358202934265136719e+00 -4.977852106094360352e-01 -1.289493292570114136e-01 6.980000000000000000e+02
3.366923332214355469e+00 -5.202109813690185547e-01 -1.296693682670593262e-01 7.380000000000000000e+02
3.360711336135864258e+00 -5.403847098350524902e-01 -1.294893622398376465e-01 7.350000000000000000e+02
3.356347799301147461e+00 -5.608308911323547363e-01 -1.294293552637100220e-01 6.980000000000000000e+02
3.364645481109619141e+00 -5.834617018699645996e-01 -1.301493942737579346e-01 6.630000000000000000e+02
3.376721382141113281e+00 -6.069219112396240234e-01 -1.311094462871551514e-01 2.080000000000000000e+02
3.296388864517211914e+00 -6.133824586868286133e-01 -1.264291852712631226e-01 1.330000000000000000e+02
3.837941408157348633e+00 -2.598126173019409180e+00 -2.034733742475509644e-01 1.030000000000000000e+02
3.813696146011352539e+00 -2.615979671478271484e+00 -2.028733491897583008e-01 9.800000000000000000e+01
3.764786720275878906e+00 -2.616542577743530273e+00 -2.004732191562652588e-01 9.900000000000000000e+01
3.726625204086303711e+00 -2.624075889587402344e+00 -1.988531351089477539e-01 5.500000000000000000e+01
3.730046033859252930e+00 -2.730553627014160156e+00 -2.027533352375030518e-01 2.900000000000000000e+01
3.944837331771850586e+00 -3.277575254440307617e+00 -2.331749945878982544e-01 1.500000000000000000e+01
3.336116313934326172e+00 4.001228883862495422e-02 -1.359083950519561768e-01 9.600000000000000000e+01
3.346278905868530273e+00 1.960046216845512390e-02 -1.365397870540618896e-01 1.210000000000000000e+02
3.313402175903320312e+00 -9.247444686479866505e-04 -1.344562023878097534e-01 6.200000000000000000e+02
3.378203153610229492e+00 -2.166827581822872162e-02 -1.385602355003356934e-01 9.110000000000000000e+02
3.382996082305908203e+00 -4.245851188898086548e-02 -1.388759315013885498e-01 9.910000000000000000e+02
3.380676269531250000e+00 -6.317818909883499146e-02 -1.387496441602706909e-01 9.800000000000000000e+02
3.376234292984008789e+00 -8.382155746221542358e-02 -1.384970992803573608e-01 9.980000000000000000e+02
3.377651453018188477e+00 -1.045978441834449768e-01 -1.386233717203140259e-01 1.012000000000000000e+03
3.390908479690551758e+00 -1.258382201194763184e-01 -1.395073235034942627e-01 1.036000000000000000e+03
3.396054983139038086e+00 -1.469005644321441650e-01 -1.398861557245254517e-01 9.990000000000000000e+02
3.401070356369018555e+00 -1.680307984352111816e-01 -1.402649879455566406e-01 1.020000000000000000e+03
3.396986007690429688e+00 -1.887302696704864502e-01 -1.400755643844604492e-01 1.023000000000000000e+03
3.384806632995605469e+00 -2.088945358991622925e-01 -1.393810361623764038e-01 9.880000000000000000e+02
3.376491308212280273e+00 -2.291866242885589600e-01 -1.389390677213668823e-01 9.540000000000000000e+02
3.374026060104370117e+00 -2.498264163732528687e-01 -1.388759315013885498e-01 9.260000000000000000e+02
3.380388259887695312e+00 -2.711623609066009521e-01 -1.393810361623764038e-01 9.750000000000000000e+02
3.369712114334106445e+00 -2.911262512207031250e-01 -1.388127952814102173e-01 9.540000000000000000e+02
3.363887310028076172e+00 -3.114291131496429443e-01 -1.385602355003356934e-01 9.050000000000000000e+02
3.369858503341674805e+00 -3.328480720520019531e-01 -1.390653401613235474e-01 9.250000000000000000e+02
3.367752552032470703e+00 -3.535188734531402588e-01 -1.390653401613235474e-01 9.290000000000000000e+02
3.371471405029296875e+00 -3.748377263545989990e-01 -1.394441723823547363e-01 8.680000000000000000e+02
3.362169742584228516e+00 -3.947034478187561035e-01 -1.390022039413452148e-01 9.450000000000000000e+02
3.360675096511840820e+00 -4.154482781887054443e-01 -1.390653401613235474e-01 8.450000000000000000e+02
3.364990472793579102e+00 -4.369604587554931641e-01 -1.395073235034942627e-01 8.830000000000000000e+02
3.374112844467163086e+00 -4.592138826847076416e-01 -1.402649879455566406e-01 9.340000000000000000e+02
3.364315271377563477e+00 -4.789241850376129150e-01 -1.398230195045471191e-01 8.520000000000000000e+02
3.364274740219116211e+00 -4.999982118606567383e-01 -1.400124281644821167e-01 8.390000000000000000e+02
3.365088462829589844e+00 -5.212424993515014648e-01 -1.402649879455566406e-01 8.660000000000000000e+02
3.368723869323730469e+00 -5.429918169975280762e-01 -1.407069563865661621e-01 8.260000000000000000e+02
3.358438730239868164e+00 -5.624980330467224121e-01 -1.402649879455566406e-01 7.840000000000000000e+02
3.364756822586059570e+00 -5.848029255867004395e-01 -1.408963799476623535e-01 7.440000000000000000e+02
3.348336458206176758e+00 -6.031382679939270020e-01 -1.400755643844604492e-01 2.360000000000000000e+02
3.286687612533569336e+00 -6.128808259963989258e-01 -1.363503783941268921e-01 1.320000000000000000e+02
3.888825893402099609e+00 -2.497587680816650391e+00 -2.172312885522842407e-01 1.160000000000000000e+02
3.769710779190063477e+00 -2.453892707824707031e+00 -2.094020694494247437e-01 3.700000000000000000e+01
3.822061777114868164e+00 -2.521490812301635742e+00 -2.145163267850875854e-01 1.230000000000000000e+02
3.790754318237304688e+00 -2.534356594085693359e+00 -2.133166790008544922e-01 1.350000000000000000e+02
3.765127897262573242e+00 -2.584637641906738281e+00 -2.137586623430252075e-01 1.020000000000000000e+02
3.729534149169921875e+00 -2.594015598297119141e+00 -2.122433185577392578e-01 1.060000000000000000e+02
3.690704345703125000e+00 -2.600754976272583008e+00 -2.104754298925399780e-01 5.000000000000000000e+01
3.652745246887207031e+00 -2.607696056365966797e+00 -2.087706774473190308e-01 2.100000000000000000e+01
3.556534767150878906e+00 -2.673169136047363281e+00 -2.063082605600357056e-01 1.400000000000000000e+01
3.366446971893310547e+00 3.967411071062088013e-02 -1.472297012805938721e-01 1.520000000000000000e+02
3.349664449691772461e+00 1.891888864338397980e-02 -1.461089700460433960e-01 1.490000000000000000e+02
3.316789150238037109e+00 -1.623487798497080803e-03 -1.439334154129028320e-01 7.090000000000000000e+02
3.366606950759887695e+00 -2.229789085686206818e-02 -1.472297012805938721e-01 8.470000000000000000e+02
3.381372928619384766e+00 -4.314331710338592529e-02 -1.482185870409011841e-01 9.010000000000000000e+02
3.378051757812500000e+00 -6.383410841226577759e-02 -1.480208039283752441e-01 9.120000000000000000e+02
3.370613813400268555e+00 -8.438646793365478516e-02 -1.475593298673629761e-01 8.760000000000000000e+02
3.371029853820800781e+00 -1.050975173711776733e-01 -1.476252526044845581e-01 8.930000000000000000e+02
3.380292892456054688e+00 -1.261504292488098145e-01 -1.482845097780227661e-01 8.660000000000000000e+02
3.384439706802368164e+00 -1.471050530672073364e-01 -1.486141383647918701e-01 9.430000000000000000e+02
3.368524312973022461e+00 -1.671293526887893677e-01 -1.476252526044845581e-01 8.680000000000000000e+02
3.366439104080200195e+00 -1.877396702766418457e-01 -1.475593298673629761e-01 8.440000000000000000e+02
3.370203495025634766e+00 -2.086998373270034790e-01 -1.478889584541320801e-01 8.420000000000000000e+02
3.372841596603393555e+00 -2.296456247568130493e-01 -1.481526643037796021e-01 8.620000000000000000e+02
3.354452371597290039e+00 -2.490830719470977783e-01 -1.470319181680679321e-01 7.800000000000000000e+02
3.361812353134155273e+00 -2.703795135021209717e-01 -1.476252526044845581e-01 8.160000000000000000e+02
3.359096050262451172e+00 -2.909161746501922607e-01 -1.475593298673629761e-01 7.750000000000000000e+02
3.358241319656372070e+00 -3.116137683391571045e-01 -1.476252526044845581e-01 7.810000000000000000e+02
3.358252048492431641e+00 -3.324099779129028320e-01 -1.477570980787277222e-01 7.900000000000000000e+02
3.362103462219238281e+00 -3.536349534988403320e-01 -1.481526643037796021e-01 7.840000000000000000e+02
3.367803812026977539e+00 -3.751403093338012695e-01 -1.486800611019134521e-01 7.760000000000000000e+02
3.357510566711425781e+00 -3.948664963245391846e-01 -1.481526643037796021e-01 7.190000000000000000e+02
3.355024576187133789e+00 -4.154603481292724609e-01 -1.481526643037796021e-01 7.750000000000000000e+02
3.354391098022460938e+00 -4.362956881523132324e-01 -1.482845097780227661e-01 7.270000000000000000e+02
3.358571767807006836e+00 -4.578119814395904541e-01 -1.487459838390350342e-01 7.180000000000000000e+02
3.363602399826049805e+00 -4.795366525650024414e-01 -1.492733955383300781e-01 7.690000000000000000e+02
3.364544630050659180e+00 -5.007532835006713867e-01 -1.495371013879776001e-01 6.900000000000000000e+02
3.361408710479736328e+00 -5.213883519172668457e-01 -1.495371013879776001e-01 7.560000000000000000e+02
3.356176137924194336e+00 -5.416860580444335938e-01 -1.494052410125732422e-01 7.080000000000000000e+02
3.349836826324462891e+00 -5.617743134498596191e-01 -1.492074728012084961e-01 6.090000000000000000e+02
3.346326828002929688e+00 -5.823179483413696289e-01 -1.492074728012084961e-01 5.890000000000000000e+02
3.271986007690429688e+00 -5.900991559028625488e-01 -1.444608271121978760e-01 5.400000000000000000e+01
3.832962751388549805e+00 -2.429607391357421875e+00 -2.246263474225997925e-01 8.600000000000000000e+01
3.858280897140502930e+00 -2.478965759277343750e+00 -2.277907729148864746e-01 1.900000000000000000e+01
3.791152000427246094e+00 -2.468838930130004883e+00 -2.237033993005752563e-01 1.300000000000000000e+02
3.787592172622680664e+00 -2.499747991561889648e+00 -2.246263474225997925e-01 1.400000000000000000e+02
3.776330232620239258e+00 -2.525714397430419922e+00 -2.249559760093688965e-01 1.380000000000000000e+02
3.757457256317138672e+00 -2.546599149703979492e+00 -2.246922701597213745e-01 1.180000000000000000e+02
3.695695161819458008e+00 -2.537978887557983398e+00 -2.210004478693008423e-01 1.090000000000000000e+02
3.716913461685180664e+00 -2.586249113082885742e+00 -2.239670902490615845e-01 3.700000000000000000e+01
3.689555883407592773e+00 -2.600959300994873047e+00 -2.230441421270370483e-01 1.400000000000000000e+01
3.600440979003906250e+00 -2.571364879608154297e+00 -2.171108275651931763e-01 1.800000000000000000e+01
3.595106124877929688e+00 -2.601010799407958984e+00 -2.179678678512573242e-01 1.000000000000000000e+01
3.554904460906982422e+00 -2.638985633850097656e+00 -2.173086106777191162e-01 1.100000000000000000e+01
3.319039583206176758e+00 2.778011839836835861e-03 -1.550931930541992188e-01 3.960000000000000000e+02
3.353909730911254883e+00 -1.777753047645092010e-02 -1.575163751840591431e-01 7.400000000000000000e+02
3.374685525894165039e+00 -3.859908506274223328e-02 -1.589702963829040527e-01 8.560000000000000000e+02
3.373387813568115234e+00 -5.928736552596092224e-02 -1.589010655879974365e-01 8.540000000000000000e+02
3.369968652725219727e+00 -7.991357892751693726e-02 -1.586933583021163940e-01 8.840000000000000000e+02
3.374400615692138672e+00 -1.007393896579742432e-01 -1.590395271778106689e-01 9.180000000000000000e+02
3.382691383361816406e+00 -1.217667311429977417e-01 -1.596626341342926025e-01 9.060000000000000000e+02
3.376897096633911133e+00 -1.423094868659973145e-01 -1.593164652585983276e-01 9.740000000000000000e+02
3.369981765747070312e+00 -1.627374738454818726e-01 -1.589010655879974365e-01 9.430000000000000000e+02
3.364935398101806641e+00 -1.831947118043899536e-01 -1.586241275072097778e-01 9.820000000000000000e+02
3.366735219955444336e+00 -2.040195912122726440e-01 -1.588318347930908203e-01 8.950000000000000000e+02
3.368406057357788086e+00 -2.248734384775161743e-01 -1.590395271778106689e-01 9.640000000000000000e+02
3.368952751159667969e+00 -2.456827610731124878e-01 -1.591780036687850952e-01 9.320000000000000000e+02
3.372354269027709961e+00 -2.667436897754669189e-01 -1.595241725444793701e-01 9.780000000000000000e+02
3.369660139083862305e+00 -2.873461246490478516e-01 -1.594549417495727539e-01 9.180000000000000000e+02
3.365846633911132812e+00 -3.078345656394958496e-01 -1.593164652585983276e-01 9.460000000000000000e+02
3.357937335968017578e+00 -3.278986215591430664e-01 -1.589010655879974365e-01 9.080000000000000000e+02
3.360823392868041992e+00 -3.490123152732849121e-01 -1.592472344636917114e-01 8.970000000000000000e+02
3.368534564971923828e+00 -3.707201182842254639e-01 -1.599395722150802612e-01 8.730000000000000000e+02
3.360250949859619141e+00 -3.906899392604827881e-01 -1.595241725444793701e-01 8.220000000000000000e+02
3.355810165405273438e+00 -4.110578298568725586e-01 -1.593856960535049438e-01 8.340000000000000000e+02
3.358171939849853516e+00 -4.322784841060638428e-01 -1.597318798303604126e-01 8.670000000000000000e+02
3.362376689910888672e+00 -4.538107514381408691e-01 -1.602165102958679199e-01 8.650000000000000000e+02
3.358541011810302734e+00 -4.742937386035919189e-01 -1.601472795009613037e-01 8.220000000000000000e+02
3.364449739456176758e+00 -4.962037205696105957e-01 -1.607703864574432373e-01 8.190000000000000000e+02
3.360355615615844727e+00 -5.166864991188049316e-01 -1.607011556625366211e-01 8.310000000000000000e+02
3.353181838989257812e+00 -5.366643071174621582e-01 -1.604242175817489624e-01 7.680000000000000000e+02
3.349825859069824219e+00 -5.572289824485778809e-01 -1.604242175817489624e-01 8.050000000000000000e+02
3.346343755722045898e+00 -5.777726173400878906e-01 -1.604242175817489624e-01 7.410000000000000000e+02
3.335861921310424805e+00 -5.970631837844848633e-01 -1.599395722150802612e-01 3.220000000000000000e+02
3.268378973007202148e+00 -6.056951880455017090e-01 -1.554393619298934937e-01 1.270000000000000000e+02
3.759239673614501953e+00 -2.376306295394897461e+00 -2.333970069885253906e-01 1.360000000000000000e+02
3.815140247344970703e+00 -2.444545030593872070e+00 -2.392126619815826416e-01 2.400000000000000000e+01
3.787520170211791992e+00 -2.459756612777709961e+00 -2.381741553544998169e-01 1.260000000000000000e+02
3.775689125061035156e+00 -2.485144376754760742e+00 -2.384510934352874756e-01 1.640000000000000000e+02
3.764518737792968750e+00 -2.511033058166503906e+00 -2.387972623109817505e-01 1.170000000000000000e+02
3.706892013549804688e+00 -2.505588293075561523e+00 -2.352663278579711914e-01 8.100000000000000000e+01
3.581989288330078125e+00 -2.453299522399902344e+00 -2.260581851005554199e-01 1.100000000000000000e+01
3.530950784683227539e+00 -2.614353656768798828e+00 -2.296583503484725952e-01 8.000000000000000000e+00
3.333594799041748047e+00 -2.870929479598999023e+00 -2.300737649202346802e-01 1.700000000000000000e+01
3.327945709228515625e+00 -2.901821374893188477e+00 -2.311815023422241211e-01 2.000000000000000000e+01
3.402820825576782227e+00 4.270635172724723816e-02 -1.716271787881851196e-01 7.400000000000000000e+01
3.404016256332397461e+00 2.183257974684238434e-02 -1.716995388269424438e-01 9.000000000000000000e+01
3.316316843032836914e+00 9.254121687263250351e-04 -1.653311699628829956e-01 4.570000000000000000e+02
3.370117664337158203e+00 -1.974127441644668579e-02 -1.692390292882919312e-01 7.750000000000000000e+02
3.372924804687500000e+00 -4.045558720827102661e-02 -1.694561392068862915e-01 8.130000000000000000e+02
3.374607563018798828e+00 -6.118696555495262146e-02 -1.696008741855621338e-01 8.830000000000000000e+02
3.370180368423461914e+00 -8.179502189159393311e-02 -1.693114042282104492e-01 8.720000000000000000e+02
3.382574796676635742e+00 -1.028672754764556885e-01 -1.702521890401840210e-01 9.210000000000000000e+02
3.385866880416870117e+00 -1.237663626670837402e-01 -1.705416589975357056e-01 9.390000000000000000e+02
3.382054328918457031e+00 -1.444115340709686279e-01 -1.703245490789413452e-01 9.010000000000000000e+02
3.375127315521240234e+00 -1.648684442043304443e-01 -1.698903441429138184e-01 9.120000000000000000e+02
3.367081165313720703e+00 -1.851909756660461426e-01 -1.693837642669677734e-01 9.710000000000000000e+02
3.365881443023681641e+00 -2.058475017547607422e-01 -1.693837642669677734e-01 8.830000000000000000e+02
3.365550279617309570e+00 -2.265633344650268555e-01 -1.694561392068862915e-01 9.030000000000000000e+02
3.371059417724609375e+00 -2.477217018604278564e-01 -1.699627041816711426e-01 9.260000000000000000e+02
3.373452901840209961e+00 -2.687184512615203857e-01 -1.702521890401840210e-01 9.500000000000000000e+02
3.368759393692016602e+00 -2.891564667224884033e-01 -1.700350791215896606e-01 8.510000000000000000e+02
3.361955881118774414e+00 -3.093641400337219238e-01 -1.696732342243194580e-01 9.150000000000000000e+02
3.359994411468505859e+00 -3.299869000911712646e-01 -1.696732342243194580e-01 8.870000000000000000e+02
3.363858222961425781e+00 -3.512189686298370361e-01 -1.701074540615081787e-01 8.330000000000000000e+02
3.370561838150024414e+00 -3.728399574756622314e-01 -1.707587540149688721e-01 8.600000000000000000e+02
3.362267017364501953e+00 -3.928195834159851074e-01 -1.703245490789413452e-01 8.440000000000000000e+02
3.356823682785034180e+00 -4.130770862102508545e-01 -1.701074540615081787e-01 8.060000000000000000e+02
3.361149787902832031e+00 -4.345619380474090576e-01 -1.706140190362930298e-01 8.510000000000000000e+02
3.357431888580322266e+00 -4.550433754920959473e-01 -1.705416589975357056e-01 8.390000000000000000e+02
3.360501527786254883e+00 -4.764760136604309082e-01 -1.709758639335632324e-01 8.700000000000000000e+02
3.365407466888427734e+00 -4.982556402683258057e-01 -1.715548038482666016e-01 7.770000000000000000e+02
3.366229772567749023e+00 -5.195047259330749512e-01 -1.718442738056182861e-01 8.040000000000000000e+02
3.359039783477783203e+00 -5.395168662071228027e-01 -1.715548038482666016e-01 7.960000000000000000e+02
3.344844818115234375e+00 -5.583105683326721191e-01 -1.707587540149688721e-01 7.120000000000000000e+02
3.336442470550537109e+00 -5.779721736907958984e-01 -1.703969240188598633e-01 6.790000000000000000e+02
3.331851482391357422e+00 -5.982570052146911621e-01 -1.703245490789413452e-01 2.920000000000000000e+02
3.291836977005004883e+00 -6.119432449340820312e-01 -1.676469445228576660e-01 1.520000000000000000e+02
3.770629167556762695e+00 -2.386318445205688477e+00 -2.484818249940872192e-01 1.410000000000000000e+02
3.782778978347778320e+00 -2.426643610000610352e+00 -2.507975995540618896e-01 3.500000000000000000e+01
3.776179790496826172e+00 -2.455245733261108398e+00 -2.515212893486022949e-01 1.120000000000000000e+02
3.720236301422119141e+00 -2.451477289199829102e+00 -2.479752451181411743e-01 4.000000000000000000e+01
3.696691513061523438e+00 -2.534769058227539062e+00 -2.499291896820068359e-01 2.700000000000000000e+01
3.491081714630126953e+00 -2.521929502487182617e+00 -2.371924370527267456e-01 1.800000000000000000e+01
3.462274551391601562e+00 -2.566362380981445312e+00 -2.374095469713211060e-01 1.800000000000000000e+01
3.852075576782226562e+00 -2.929243326187133789e+00 -2.758368849754333496e-01 1.900000000000000000e+01
3.601844787597656250e+00 -2.845088243484497070e+00 -2.577449083328247070e-01 2.300000000000000000e+01
3.394211769104003906e+00 4.071195423603057861e-02 -1.798997223377227783e-01 1.110000000000000000e+02
3.393400430679321289e+00 1.987880468368530273e-02 -1.798247545957565308e-01 1.320000000000000000e+02
3.305706262588500977e+00 -9.229815332219004631e-04 -1.732266247272491455e-01 5.240000000000000000e+02
3.388403177261352539e+00 -2.173320017755031586e-02 -1.794498562812805176e-01 8.860000000000000000e+02
3.388206005096435547e+00 -4.252364113926887512e-02 -1.794498562812805176e-01 9.750000000000000000e+02
3.383893251419067383e+00 -6.323815137147903442e-02 -1.791499406099319458e-01 9.980000000000000000e+02
3.390419721603393555e+00 -8.417303860187530518e-02 -1.796747893095016479e-01 1.008000000000000000e+03
3.388842582702636719e+00 -1.049438640475273132e-01 -1.795998066663742065e-01 9.700000000000000000e+02
3.394114017486572266e+00 -1.259570270776748657e-01 -1.800496876239776611e-01 1.009000000000000000e+03
3.389292240142822266e+00 -1.466083675622940063e-01 -1.797497719526290894e-01 9.920000000000000000e+02
3.384344816207885742e+00 -1.672052741050720215e-01 -1.794498562812805176e-01 9.410000000000000000e+02
3.374294281005859375e+00 -1.874706745147705078e-01 -1.787750422954559326e-01 9.480000000000000000e+02
3.367108821868896484e+00 -2.078031748533248901e-01 -1.783251762390136719e-01 9.690000000000000000e+02
3.364775419235229492e+00 -2.283919602632522583e-01 -1.782501935958862305e-01 9.440000000000000000e+02
3.372260808944702148e+00 -2.496958076953887939e-01 -1.789250075817108154e-01 9.660000000000000000e+02
3.371659278869628906e+00 -2.704626023769378662e-01 -1.789999902248382568e-01 9.310000000000000000e+02
3.359008073806762695e+00 -2.902019917964935303e-01 -1.781752109527587891e-01 9.180000000000000000e+02
3.355178117752075195e+00 -3.106232583522796631e-01 -1.780252605676651001e-01 9.810000000000000000e+02
3.362140417098999023e+00 -3.320861160755157471e-01 -1.787000745534896851e-01 9.100000000000000000e+02
3.374915599822998047e+00 -3.542704284191131592e-01 -1.798247545957565308e-01 9.500000000000000000e+02
3.375651597976684570e+00 -3.753022551536560059e-01 -1.800496876239776611e-01 8.920000000000000000e+02
3.364371538162231445e+00 -3.949618339538574219e-01 -1.793748736381530762e-01 8.680000000000000000e+02
3.363864183425903320e+00 -4.158423840999603271e-01 -1.795248389244079590e-01 9.380000000000000000e+02
3.361249208450317383e+00 -4.364748299121856689e-01 -1.795248389244079590e-01 9.230000000000000000e+02
3.359495878219604492e+00 -4.572252929210662842e-01 -1.795998066663742065e-01 8.820000000000000000e+02
3.363537788391113281e+00 -4.788135886192321777e-01 -1.801246702671051025e-01 8.470000000000000000e+02
3.369413852691650391e+00 -5.007617473602294922e-01 -1.807994693517684937e-01 8.710000000000000000e+02
3.371205091476440430e+00 -5.221896171569824219e-01 -1.811743676662445068e-01 8.510000000000000000e+02
3.367937326431274414e+00 -5.428650975227355957e-01 -1.811743676662445068e-01 8.560000000000000000e+02
3.339955806732177734e+00 -5.594033002853393555e-01 -1.792999058961868286e-01 7.460000000000000000e+02
3.332530498504638672e+00 -5.792035460472106934e-01 -1.789999902248382568e-01 7.350000000000000000e+02
3.333820819854736328e+00 -6.005243062973022461e-01 -1.793748736381530762e-01 2.840000000000000000e+02
3.346738338470458984e+00 -6.240756511688232422e-01 -1.806495189666748047e-01 1.660000000000000000e+02
3.780424356460571289e+00 -2.395336866378784180e+00 -2.611766755580902100e-01 1.370000000000000000e+02
3.847883701324462891e+00 -2.471294641494750977e+00 -2.685245871543884277e-01 1.800000000000000000e+01
3.654438257217407227e+00 -2.541787862777709961e+00 -2.593771815299987793e-01 1.000000000000000000e+01
3.414606571197509766e+00 -2.406210422515869141e+00 -2.387580275535583496e-01 1.100000000000000000e+01
3.449464797973632812e+00 -2.494678497314453125e+00 -2.447563260793685913e-01 1.100000000000000000e+01
3.369737625122070312e+00 -2.468654394149780273e+00 -2.387580275535583496e-01 1.700000000000000000e+01
3.621754884719848633e+00 -2.827990770339965820e+00 -2.701741158962249756e-01 2.100000000000000000e+01
3.363483667373657227e+00 4.022346809506416321e-02 -1.881758868694305420e-01 1.170000000000000000e+02
3.391581058502197266e+00 1.975147612392902374e-02 -1.903630048036575317e-01 1.590000000000000000e+02
3.303907394409179688e+00 -1.044891308993101120e-03 -1.834892183542251587e-01 5.850000000000000000e+02
3.374620437622070312e+00 -2.176316455006599426e-02 -1.890351176261901855e-01 8.130000000000000000e+02
3.371432781219482422e+00 -4.243184253573417664e-02 -1.888007819652557373e-01 8.710000000000000000e+02
3.359147548675537109e+00 -6.289560347795486450e-02 -1.878634393215179443e-01 8.410000000000000000e+02
3.367668151855468750e+00 -8.372742682695388794e-02 -1.885664463043212891e-01 8.810000000000000000e+02
3.364101648330688477e+00 -1.042972430586814880e-01 -1.883321106433868408e-01 8.360000000000000000e+02
3.371368408203125000e+00 -1.252318769693374634e-01 -1.889570057392120361e-01 8.760000000000000000e+02
3.372528553009033203e+00 -1.460017859935760498e-01 -1.891132295131683350e-01 8.560000000000000000e+02
3.376548051834106445e+00 -1.669378876686096191e-01 -1.895037740468978882e-01 8.520000000000000000e+02
3.375460147857666016e+00 -1.876528561115264893e-01 -1.895037740468978882e-01 7.760000000000000000e+02
3.371259927749633789e+00 -2.081768661737442017e-01 -1.892694383859634399e-01 8.160000000000000000e+02
3.362956523895263672e+00 -2.283868044614791870e-01 -1.887226700782775879e-01 7.950000000000000000e+02
3.365468740463256836e+00 -2.493112385272979736e-01 -1.890351176261901855e-01 7.890000000000000000e+02
3.360894441604614258e+00 -2.697178721427917480e-01 -1.888007819652557373e-01 7.590000000000000000e+02
3.359176158905029297e+00 -2.903348505496978760e-01 -1.888007819652557373e-01 8.040000000000000000e+02
3.378178358078002930e+00 -3.128685057163238525e-01 -1.904411166906356812e-01 6.990000000000000000e+02
3.370242357254028320e+00 -3.330034315586090088e-01 -1.899724453687667847e-01 7.360000000000000000e+02
3.355246067047119141e+00 -3.523250520229339600e-01 -1.889570057392120361e-01 7.280000000000000000e+02
3.359956979751586914e+00 -3.736761510372161865e-01 -1.895037740468978882e-01 7.910000000000000000e+02
3.360571384429931641e+00 -3.946337997913360596e-01 -1.897381097078323364e-01 7.220000000000000000e+02
3.346213579177856445e+00 -4.137800633907318115e-01 -1.888007819652557373e-01 7.130000000000000000e+02
3.337679624557495117e+00 -4.335346519947052002e-01 -1.883321106433868408e-01 6.890000000000000000e+02
3.338908195495605469e+00 -4.545434117317199707e-01 -1.886445581912994385e-01 6.960000000000000000e+02
3.332108259201049805e+00 -4.744604527950286865e-01 -1.883321106433868408e-01 6.550000000000000000e+02
3.335051059722900391e+00 -4.957756102085113525e-01 -1.888007819652557373e-01 7.160000000000000000e+02
3.346724510192871094e+00 -5.185171365737915039e-01 -1.899724453687667847e-01 7.290000000000000000e+02
3.348401069641113281e+00 -5.398351550102233887e-01 -1.903630048036575317e-01 6.770000000000000000e+02
3.378456830978393555e+00 -5.659658312797546387e-01 -1.930187791585922241e-01 5.380000000000000000e+02
3.360187053680419922e+00 -5.841259360313415527e-01 -1.918471157550811768e-01 5.360000000000000000e+02
3.269215106964111328e+00 -5.890131592750549316e-01 -1.848952174186706543e-01 1.000000000000000000e+02
3.749298572540283203e+00 -2.343558549880981445e+00 -2.710517644882202148e-01 1.270000000000000000e+02
3.782010555267333984e+00 -2.396395683288574219e+00 -2.754260003566741943e-01 2.500000000000000000e+01
3.391402482986450195e+00 -2.484603404998779297e+00 -2.540235519409179688e-01 1.000000000000000000e+01
3.344067096710205078e+00 -2.481605291366577148e+00 -2.508991062641143799e-01 1.000000000000000000e+01
