# .PCD v.7 - Point Cloud Data file format
VERSION .7
FIELDS x y z intensity
SIZE 4 4 4 4
TYPE F F F F
COUNT 1 1 1 1
WIDTH 469
HEIGHT 1
VIEWPOINT 0 0 0 1 0 0 0
POINTS 469
DATA ascii
3.356154441833496094e+00 -1.965879648923873901e-02 -1.682258844375610352e-01 9.730000000000000000e+02
3.354973316192626953e+00 -4.023939371109008789e-02 -1.681535094976425171e-01 9.380000000000000000e+02
3.357655048370361328e+00 -6.087875366210937500e-02 -1.683706194162368774e-01 9.710000000000000000e+02
3.359212398529052734e+00 -8.152829110622406006e-02 -1.685153543949127197e-01 9.280000000000000000e+02
3.362636566162109375e+00 -1.022599563002586365e-01 -1.688048243522644043e-01 9.320000000000000000e+02
3.361945867538452148e+00 -1.228907853364944458e-01 -1.688048243522644043e-01 9.540000000000000000e+02
3.364117860794067383e+00 -1.436447799205780029e-01 -1.690219342708587646e-01 9.430000000000000000e+02
3.354207515716552734e+00 -1.638455092906951904e-01 -1.683706194162368774e-01 9.050000000000000000e+02
3.359114170074462891e+00 -1.847523897886276245e-01 -1.688048243522644043e-01 9.410000000000000000e+02
3.356921911239624023e+00 -2.052991241216659546e-01 -1.687324643135070801e-01 9.250000000000000000e+02
3.362564802169799805e+00 -2.263622134923934937e-01 -1.692390292882919312e-01 9.370000000000000000e+02
3.364096641540527344e+00 -2.472096979618072510e-01 -1.694561392068862915e-01 9.240000000000000000e+02
3.362516403198242188e+00 -2.678467631340026855e-01 -1.694561392068862915e-01 8.600000000000000000e+02
3.360809803009033203e+00 -2.884737253189086914e-01 -1.694561392068862915e-01 8.100000000000000000e+02
3.369901418685913086e+00 -3.100956678390502930e-01 -1.702521890401840210e-01 2.380000000000000000e+02
3.336172103881835938e+00 -3.276461064815521240e-01 -1.679364144802093506e-01 1.350000000000000000e+02
3.771336078643798828e+00 -1.839422821998596191e+00 -2.291596084833145142e-01 2.170000000000000000e+02
3.703674316406250000e+00 -1.834635257720947266e+00 -2.246004343032836914e-01 2.940000000000000000e+02
3.682546615600585938e+00 -1.852395534515380859e+00 -2.238043844699859619e-01 4.290000000000000000e+02
3.668446779251098633e+00 -1.873595237731933594e+00 -2.235872894525527954e-01 3.600000000000000000e+02
3.566568851470947266e+00 -1.849238038063049316e+00 -2.162057608366012573e-01 2.790000000000000000e+02
3.583397626876831055e+00 -1.885953068733215332e+00 -2.185215353965759277e-01 1.730000000000000000e+02
3.591111898422241211e+00 -1.918243885040283203e+00 -2.201136350631713867e-01 1.290000000000000000e+02
3.507375240325927734e+00 -1.901263952255249023e+00 -2.141794711351394653e-01 1.160000000000000000e+02
3.512247085571289062e+00 -1.931882619857788086e+00 -2.155544608831405640e-01 1.450000000000000000e+02
3.494230747222900391e+00 -1.949994564056396484e+00 -2.150478810071945190e-01 1.570000000000000000e+02
3.464841842651367188e+00 -1.961569905281066895e+00 -2.136005312204360962e-01 1.640000000000000000e+02
3.421604633331298828e+00 -1.964910745620727539e+00 -2.109952867031097412e-01 2.660000000000000000e+02
3.401727437973022461e+00 -1.981350183486938477e+00 -2.103439718484878540e-01 4.280000000000000000e+02
3.386070966720581055e+00 -2.000156164169311523e+00 -2.100545018911361694e-01 5.090000000000000000e+02
3.360044956207275391e+00 -2.012694120407104492e+00 -2.088966071605682373e-01 5.710000000000000000e+02
3.364680767059326172e+00 -2.043629169464111328e+00 -2.103439718484878540e-01 6.250000000000000000e+02
3.377555370330810547e+00 -2.079926490783691406e+00 -2.125150114297866821e-01 6.210000000000000000e+02
3.345271110534667969e+00 -2.088462591171264648e+00 -2.108505517244338989e-01 6.390000000000000000e+02
3.321437835693359375e+00 -2.102015256881713867e+00 -2.099097669124603271e-01 6.580000000000000000e+02
3.295885324478149414e+00 -2.114277362823486328e+00 -2.088242471218109131e-01 6.720000000000000000e+02
3.288703441619873047e+00 -2.138266563415527344e+00 -2.093308269977569580e-01 7.010000000000000000e+02
3.287180662155151367e+00 -2.166088819503784180e+00 -2.103439718484878540e-01 6.910000000000000000e+02
3.277974843978881836e+00 -2.188987493515014648e+00 -2.107058167457580566e-01 6.870000000000000000e+02
3.272741794586181641e+00 -2.214649677276611328e+00 -2.114294916391372681e-01 1.470000000000000000e+02
3.155449390411376953e+00 -2.163617610931396484e+00 -2.023111432790756226e-01 4.800000000000000000e+01
3.178972721099853516e+00 -2.208547592163085938e+00 -2.055676877498626709e-01 9.000000000000000000e+01
3.102562427520751953e+00 -2.183805227279663086e+00 -1.999953687191009521e-01 8.600000000000000000e+01
3.203601360321044922e+00 -2.284454822540283203e+00 -2.101992368698120117e-01 7.530000000000000000e+02
3.208927154541015625e+00 -2.318086624145507812e+00 -2.119360566139221191e-01 8.580000000000000000e+02
3.203496694564819336e+00 -2.344212055206298828e+00 -2.127321064472198486e-01 8.370000000000000000e+02
3.200269937515258789e+00 -2.372139453887939453e+00 -2.137452661991119385e-01 8.410000000000000000e+02
3.212772130966186523e+00 -2.412092447280883789e+00 -2.162057608366012573e-01 8.850000000000000000e+02
3.206644058227539062e+00 -2.438401460647583008e+00 -2.170018106698989868e-01 9.080000000000000000e+02
3.244760274887084961e+00 -2.694922208786010742e+00 -2.307517081499099731e-01 2.300000000000000000e+01
3.269038438796997070e+00 3.210495412349700928e-01 -1.716520637273788452e-01 1.400000000000000000e+02
3.268960714340209961e+00 3.008022308349609375e-01 -1.715021133422851562e-01 2.090000000000000000e+02
3.330356597900390625e+00 2.858582735061645508e-01 -1.760008335113525391e-01 6.910000000000000000e+02
3.332047939300537109e+00 2.654182314872741699e-01 -1.760008335113525391e-01 7.260000000000000000e+02
3.337591886520385742e+00 2.452606856822967529e-01 -1.763007491827011108e-01 7.820000000000000000e+02
3.337044000625610352e+00 2.246429324150085449e-01 -1.761507987976074219e-01 8.450000000000000000e+02
3.333382844924926758e+00 2.038583904504776001e-01 -1.757759004831314087e-01 8.890000000000000000e+02
3.343532085418701172e+00 1.838946044445037842e-01 -1.764507144689559937e-01 8.910000000000000000e+02
3.355553388595581055e+00 1.639113277196884155e-01 -1.772754788398742676e-01 9.180000000000000000e+02
3.357492446899414062e+00 1.433615386486053467e-01 -1.773504465818405151e-01 9.460000000000000000e+02
3.370266914367675781e+00 1.231953650712966919e-01 -1.782501935958862305e-01 9.700000000000000000e+02
3.367969274520874023e+00 1.024223938584327698e-01 -1.780252605676651001e-01 9.730000000000000000e+02
3.366540670394897461e+00 8.170650899410247803e-02 -1.778753101825714111e-01 9.980000000000000000e+02
3.365981578826904297e+00 6.103013828396797180e-02 -1.778003275394439697e-01 9.890000000000000000e+02
3.366292715072631836e+00 4.037571325898170471e-02 -1.778003275394439697e-01 1.006000000000000000e+03
3.363485574722290039e+00 1.970209926366806030e-02 -1.775753945112228394e-01 9.610000000000000000e+02
3.366534709930419922e+00 -9.369157487526535988e-04 -1.778003275394439697e-01 9.380000000000000000e+02
3.363473892211914062e+00 -2.157452516257762909e-02 -1.775753945112228394e-01 9.670000000000000000e+02
3.360286951065063477e+00 -4.217461124062538147e-02 -1.773504465818405151e-01 9.880000000000000000e+02
3.362956047058105469e+00 -6.284789741039276123e-02 -1.775753945112228394e-01 1.006000000000000000e+03
3.364500761032104492e+00 -8.353082835674285889e-02 -1.777253448963165283e-01 9.850000000000000000e+02
3.372895240783691406e+00 -1.044507995247840881e-01 -1.784001588821411133e-01 1.012000000000000000e+03
3.376176834106445312e+00 -1.252922564744949341e-01 -1.787000745534896851e-01 1.040000000000000000e+03
3.376340866088867188e+00 -1.460487693548202515e-01 -1.787750422954559326e-01 1.030000000000000000e+03
3.377373218536376953e+00 -1.668611764907836914e-01 -1.789250075817108154e-01 1.049000000000000000e+03
3.370311737060546875e+00 -1.872496008872985840e-01 -1.784751266241073608e-01 9.690000000000000000e+02
3.371089935302734375e+00 -2.080486714839935303e-01 -1.786250919103622437e-01 9.540000000000000000e+02
3.368755102157592773e+00 -2.286618947982788086e-01 -1.785501092672348022e-01 9.980000000000000000e+02
3.366294145584106445e+00 -2.492543011903762817e-01 -1.784751266241073608e-01 9.390000000000000000e+02
3.362713336944580078e+00 -2.697454094886779785e-01 -1.783251762390136719e-01 8.870000000000000000e+02
3.360001564025878906e+00 -2.902877926826477051e-01 -1.782501935958862305e-01 7.970000000000000000e+02
3.367093563079833984e+00 -3.117257952690124512e-01 -1.789250075817108154e-01 2.100000000000000000e+02
3.348247289657592773e+00 -3.307145535945892334e-01 -1.776503622531890869e-01 1.240000000000000000e+02
3.758868217468261719e+00 -1.835842370986938477e+00 -2.392079085111618042e-01 6.830000000000000000e+02
3.692145824432373047e+00 -1.831400990486145020e+00 -2.345592230558395386e-01 4.660000000000000000e+02
3.666589260101318359e+00 -1.846844315528869629e+00 -2.333595603704452515e-01 4.720000000000000000e+02
3.645421981811523438e+00 -1.864313244819641113e+00 -2.325347959995269775e-01 6.270000000000000000e+02
3.612673282623291016e+00 -1.875619411468505859e+00 -2.307353019714355469e-01 6.690000000000000000e+02
3.572866201400756836e+00 -1.882875323295593262e+00 -2.283359915018081665e-01 6.570000000000000000e+02
3.549814701080322266e+00 -1.898648977279663086e+00 -2.273612618446350098e-01 6.680000000000000000e+02
3.529333591461181641e+00 -1.915637969970703125e+00 -2.266114801168441772e-01 7.250000000000000000e+02
3.500916719436645508e+00 -1.928117990493774414e+00 -2.251868844032287598e-01 6.740000000000000000e+02
3.480314731597900391e+00 -1.944699168205261230e+00 -2.244370877742767334e-01 7.150000000000000000e+02
3.452701330184936523e+00 -1.957166552543640137e+00 -2.230874747037887573e-01 7.070000000000000000e+02
3.419879674911499023e+00 -1.966386556625366211e+00 -2.212879806756973267e-01 7.500000000000000000e+02
3.397412538528442383e+00 -1.981305718421936035e+00 -2.203882485628128052e-01 7.330000000000000000e+02
3.397208213806152344e+00 -2.009220838546752930e+00 -2.214379459619522095e-01 7.680000000000000000e+02
3.380539894104003906e+00 -2.027463674545288086e+00 -2.210630476474761963e-01 7.410000000000000000e+02
3.361219644546508789e+00 -2.044023275375366211e+00 -2.204632163047790527e-01 7.650000000000000000e+02
3.357951879501342773e+00 -2.070365428924560547e+00 -2.212879806756973267e-01 7.330000000000000000e+02
3.344339370727539062e+00 -2.090401887893676758e+00 -2.212130129337310791e-01 8.110000000000000000e+02
3.312918186187744141e+00 -2.099141836166381836e+00 -2.195634692907333374e-01 8.150000000000000000e+02
3.292424201965332031e+00 -2.114580392837524414e+00 -2.188886702060699463e-01 8.220000000000000000e+02
3.283566236495971680e+00 -2.137462615966796875e+00 -2.192635536193847656e-01 8.070000000000000000e+02
3.267891883850097656e+00 -2.155922651290893555e+00 -2.190386205911636353e-01 8.600000000000000000e+02
3.260405063629150391e+00 -2.179812669754028320e+00 -2.195634692907333374e-01 8.730000000000000000e+02
3.165985345840454102e+00 -2.231026172637939453e+00 -2.158895134925842285e-01 6.140000000000000000e+02
3.230151176452636719e+00 -2.306029319763183594e+00 -2.230874747037887573e-01 9.660000000000000000e+02
3.213516712188720703e+00 -2.324052810668945312e+00 -2.228625416755676270e-01 9.500000000000000000e+02
3.200804948806762695e+00 -2.344905376434326172e+00 -2.230124920606613159e-01 9.980000000000000000e+02
3.198094129562377930e+00 -2.403778314590454102e+00 -2.254868000745773315e-01 9.660000000000000000e+02
3.192806243896484375e+00 -2.430603981018066406e+00 -2.263865321874618530e-01 9.850000000000000000e+02
3.185853958129882812e+00 -2.519267320632934570e+00 -2.300605028867721558e-01 3.800000000000000000e+02
3.905950069427490234e+00 2.785306930541992188e+00 -3.004996478557586670e-01 1.920000000000000000e+02
3.273218154907226562e+00 3.213363587856292725e-01 -1.823175549507141113e-01 1.620000000000000000e+02
3.264208078384399414e+00 3.002400994300842285e-01 -1.814583390951156616e-01 2.130000000000000000e+02
3.320619344711303711e+00 2.849011421203613281e-01 -1.857544481754302979e-01 6.430000000000000000e+02
3.327273845672607422e+00 2.649172246456146240e-01 -1.861450076103210449e-01 7.480000000000000000e+02
3.325854063034057617e+00 2.442769259214401245e-01 -1.859106719493865967e-01 7.500000000000000000e+02
3.323311567306518555e+00 2.235969752073287964e-01 -1.855982244014739990e-01 7.650000000000000000e+02
3.320640563964843750e+00 2.029574215412139893e-01 -1.852857768535614014e-01 7.870000000000000000e+02
3.318837165832519531e+00 1.824139505624771118e-01 -1.850514411926269531e-01 7.450000000000000000e+02
3.329851388931274414e+00 1.625340580940246582e-01 -1.858325600624084473e-01 7.940000000000000000e+02
3.328794002532958984e+00 1.420141309499740601e-01 -1.856763362884521484e-01 7.380000000000000000e+02
3.329602718353271484e+00 1.215863600373268127e-01 -1.856763362884521484e-01 8.000000000000000000e+02
3.325303554534912109e+00 1.010019183158874512e-01 -1.852857768535614014e-01 8.030000000000000000e+02
3.319880962371826172e+00 8.045051991939544678e-02 -1.848171204328536987e-01 8.510000000000000000e+02
3.323302268981933594e+00 6.013316288590431213e-02 -1.850514411926269531e-01 8.170000000000000000e+02
3.353514909744262695e+00 4.010275751352310181e-02 -1.873947829008102417e-01 9.090000000000000000e+02
3.353697776794433594e+00 1.952522248029708862e-02 -1.873947829008102417e-01 8.600000000000000000e+02
3.358739137649536133e+00 -1.053863205015659332e-03 -1.877853274345397949e-01 8.560000000000000000e+02
3.355678796768188477e+00 -2.164383977651596069e-02 -1.875510066747665405e-01 8.890000000000000000e+02
3.345514059066772461e+00 -4.210951924324035645e-02 -1.867698878049850464e-01 8.530000000000000000e+02
3.353167057037353516e+00 -6.278452277183532715e-02 -1.873947829008102417e-01 9.010000000000000000e+02
3.346738815307617188e+00 -8.321020752191543579e-02 -1.869261115789413452e-01 8.820000000000000000e+02
3.352144002914428711e+00 -1.039283126592636108e-01 -1.873947829008102417e-01 7.850000000000000000e+02
3.360409498214721680e+00 -1.248264461755752563e-01 -1.880977749824523926e-01 8.120000000000000000e+02
3.362568378448486328e+00 -1.455720961093902588e-01 -1.883321106433868408e-01 8.280000000000000000e+02
3.355637550354003906e+00 -1.659072041511535645e-01 -1.878634393215179443e-01 8.050000000000000000e+02
3.343606710433959961e+00 -1.858868002891540527e-01 -1.870042234659194946e-01 7.990000000000000000e+02
3.351358890533447266e+00 -2.069509476423263550e-01 -1.877072304487228394e-01 7.630000000000000000e+02
3.354004621505737305e+00 -2.277802079916000366e-01 -1.880196630954742432e-01 7.680000000000000000e+02
3.338624477386474609e+00 -2.473266720771789551e-01 -1.869261115789413452e-01 7.420000000000000000e+02
3.334062814712524414e+00 -2.675686180591583252e-01 -1.866917759180068970e-01 6.420000000000000000e+02
3.359176158905029297e+00 -2.903348505496978760e-01 -1.888007819652557373e-01 5.580000000000000000e+02
3.379171133041381836e+00 -3.129602968692779541e-01 -1.905192285776138306e-01 5.800000000000000000e+01
3.828423023223876953e+00 -1.840869545936584473e+00 -2.574604451656341553e-01 9.600000000000000000e+01
3.748970270156860352e+00 -1.831081628799438477e+00 -2.515240013599395752e-01 6.790000000000000000e+02
3.695686101913452148e+00 -1.833233475685119629e+00 -2.478527724742889404e-01 4.680000000000000000e+02
3.657655477523803711e+00 -1.842423796653747559e+00 -2.455094456672668457e-01 4.590000000000000000e+02
3.628528594970703125e+00 -1.855755329132080078e+00 -2.439472228288650513e-01 5.480000000000000000e+02
3.602916002273559570e+00 -1.870636224746704102e+00 -2.426974326372146606e-01 6.620000000000000000e+02
3.568437576293945312e+00 -1.880625963211059570e+00 -2.406665533781051636e-01 6.240000000000000000e+02
3.546281337738037109e+00 -1.896844863891601562e+00 -2.397292107343673706e-01 6.850000000000000000e+02
3.523184537887573242e+00 -1.912387371063232422e+00 -2.387137711048126221e-01 6.670000000000000000e+02
3.493044376373291016e+00 -1.923871278762817383e+00 -2.370734363794326782e-01 7.220000000000000000e+02
3.468989133834838867e+00 -1.938461184501647949e+00 -2.359798848628997803e-01 7.200000000000000000e+02
3.444886922836303711e+00 -1.952828526496887207e+00 -2.348863333463668823e-01 7.100000000000000000e+02
3.419010639190673828e+00 -1.965979695320129395e+00 -2.336365580558776855e-01 7.000000000000000000e+02
3.399132013320922852e+00 -1.982402086257934570e+00 -2.329335510730743408e-01 7.530000000000000000e+02
3.394627571105957031e+00 -2.007788181304931641e+00 -2.336365580558776855e-01 6.880000000000000000e+02
3.377969026565551758e+00 -2.026015996932983398e+00 -2.332459986209869385e-01 7.120000000000000000e+02
3.350140333175659180e+00 -2.037382364273071289e+00 -2.318399995565414429e-01 7.220000000000000000e+02
3.352003574371337891e+00 -2.066793203353881836e+00 -2.331678867340087891e-01 7.020000000000000000e+02
3.338413476943969727e+00 -2.086793422698974609e+00 -2.330897748470306396e-01 7.500000000000000000e+02
3.311229228973388672e+00 -2.098168849945068359e+00 -2.317618876695632935e-01 7.840000000000000000e+02
3.287387132644653320e+00 -2.111443996429443359e+00 -2.307464331388473511e-01 7.400000000000000000e+02
3.282725334167480469e+00 -2.137013435363769531e+00 -2.315275520086288452e-01 7.740000000000000000e+02
3.262893199920654297e+00 -2.152724266052246094e+00 -2.309026569128036499e-01 8.110000000000000000e+02
3.261226654052734375e+00 -2.180460453033447266e+00 -2.319962233304977417e-01 8.240000000000000000e+02
3.243659257888793945e+00 -2.197634696960449219e+00 -2.316056638956069946e-01 7.070000000000000000e+02
3.198056459426879883e+00 -2.195494651794433594e+00 -2.285593301057815552e-01 1.330000000000000000e+02
3.239364624023437500e+00 -2.253210544586181641e+00 -2.337927669286727905e-01 1.850000000000000000e+02
3.230368137359619141e+00 -2.276489734649658203e+00 -2.342614382505416870e-01 9.400000000000000000e+02
3.213904619216918945e+00 -2.294530391693115234e+00 -2.340271025896072388e-01 9.210000000000000000e+02
3.202996730804443359e+00 -2.316544055938720703e+00 -2.343395501375198364e-01 9.900000000000000000e+02
3.187709093093872070e+00 -2.396070003509521484e+00 -2.370734363794326782e-01 8.980000000000000000e+02
3.180880069732666016e+00 -2.421622276306152344e+00 -2.378545552492141724e-01 8.930000000000000000e+02
3.175436496734619141e+00 -2.448398113250732422e+00 -2.387918829917907715e-01 9.410000000000000000e+02
3.237514972686767578e+00 3.003033101558685303e-01 -1.998535990715026855e-01 1.060000000000000000e+02
3.300845623016357422e+00 2.857579588890075684e-01 -2.050847560167312622e-01 5.090000000000000000e+02
3.292604684829711914e+00 2.647009789943695068e-01 -2.042410224676132202e-01 6.130000000000000000e+02
3.299135446548461914e+00 2.448614537715911865e-01 -2.046628892421722412e-01 7.880000000000000000e+02
3.304552316665649414e+00 2.248841524124145508e-01 -2.050003856420516968e-01 7.540000000000000000e+02
3.307858943939208984e+00 2.047265768051147461e-01 -2.051691263914108276e-01 7.790000000000000000e+02
3.306068181991577148e+00 1.842598766088485718e-01 -2.049160152673721313e-01 7.430000000000000000e+02
3.306141376495361328e+00 1.639214605093002319e-01 -2.048316448926925659e-01 7.430000000000000000e+02
3.317039966583251953e+00 1.440641433000564575e-01 -2.056753784418106079e-01 7.840000000000000000e+02
3.317861318588256836e+00 1.237084642052650452e-01 -2.056753784418106079e-01 7.780000000000000000e+02
3.314574241638183594e+00 1.032242476940155029e-01 -2.053378820419311523e-01 7.460000000000000000e+02
3.319129705429077148e+00 8.298388123512268066e-02 -2.056753784418106079e-01 7.660000000000000000e+02
3.339501619338989258e+00 6.299138814210891724e-02 -2.073628455400466919e-01 7.070000000000000000e+02
3.336836099624633789e+00 4.246151819825172424e-02 -2.071097195148468018e-01 7.360000000000000000e+02
3.331055402755737305e+00 2.194717898964881897e-02 -2.066034823656082153e-01 6.440000000000000000e+02
3.333120107650756836e+00 1.508598914369940758e-03 -2.067722231149673462e-01 6.710000000000000000e+02
3.340041637420654297e+00 -1.898305304348468781e-02 -2.073628455400466919e-01 5.870000000000000000e+02
3.328902244567871094e+00 -3.934672474861145020e-02 -2.064347416162490845e-01 5.080000000000000000e+02
3.308672666549682617e+00 -5.941296368837356567e-02 -2.047472596168518066e-01 4.360000000000000000e+02
3.307249784469604492e+00 -7.968942821025848389e-02 -2.046628892421722412e-01 3.950000000000000000e+02
3.315662384033203125e+00 -1.002523005008697510e-01 -2.054222524166107178e-01 3.440000000000000000e+02
3.327929735183715820e+00 -1.210664957761764526e-01 -2.065191119909286499e-01 2.760000000000000000e+02
3.335088491439819336e+00 -1.418230831623077393e-01 -2.071941047906875610e-01 2.400000000000000000e+02
3.342117547988891602e+00 -1.626720577478408813e-01 -2.078690826892852783e-01 2.140000000000000000e+02
3.344041347503662109e+00 -1.833396255970001221e-01 -2.081222087144851685e-01 1.800000000000000000e+02
3.338875055313110352e+00 -2.036120295524597168e-01 -2.077847123146057129e-01 1.630000000000000000e+02
3.279899835586547852e+00 -2.202206254005432129e-01 -2.028910517692565918e-01 1.300000000000000000e+02
3.258611440658569336e+00 -2.388835400342941284e-01 -2.012035846710205078e-01 1.140000000000000000e+02
3.298802852630615234e+00 -2.621914148330688477e-01 -2.047472596168518066e-01 5.400000000000000000e+01
3.930904626846313477e+00 -1.857057690620422363e+00 -2.926644682884216309e-01 1.330000000000000000e+02
3.590654850006103516e+00 -1.723327875137329102e+00 -2.617837488651275635e-01 9.300000000000000000e+01
3.679429769515991211e+00 -1.793799996376037598e+00 -2.711492180824279785e-01 6.790000000000000000e+02
3.647816181182861328e+00 -1.806172609329223633e+00 -2.692086100578308105e-01 6.120000000000000000e+02
3.617970466613769531e+00 -1.819120645523071289e+00 -2.674367725849151611e-01 6.590000000000000000e+02
3.598753213882446289e+00 -1.837207913398742676e+00 -2.666774094104766846e-01 6.250000000000000000e+02
3.581219911575317383e+00 -1.856045007705688477e+00 -2.660868167877197266e-01 6.920000000000000000e+02
3.542427301406860352e+00 -1.863601326942443848e+00 -2.634712159633636475e-01 6.860000000000000000e+02
3.523894071578979492e+00 -1.881547331809997559e+00 -2.627962231636047363e-01 6.810000000000000000e+02
3.494761466979980469e+00 -1.893639206886291504e+00 -2.611087560653686523e-01 7.340000000000000000e+02
3.464740514755249023e+00 -1.904964566230773926e+00 -2.593369185924530029e-01 7.630000000000000000e+02
3.446895360946655273e+00 -1.922789812088012695e+00 -2.587462961673736572e-01 7.480000000000000000e+02
3.422024726867675781e+00 -1.936541438102722168e+00 -2.574807107448577881e-01 7.510000000000000000e+02
3.400572299957275391e+00 -1.952045083045959473e+00 -2.565526068210601807e-01 8.170000000000000000e+02
3.380780935287475586e+00 -1.968361258506774902e+00 -2.557932436466217041e-01 8.510000000000000000e+02
3.340325593948364258e+00 -1.972348213195800781e+00 -2.530089020729064941e-01 7.680000000000000000e+02
3.328160524368286133e+00 -1.992806911468505859e+00 -2.530089020729064941e-01 8.210000000000000000e+02
3.327794313430786133e+00 -2.020430803298950195e+00 -2.541901469230651855e-01 8.580000000000000000e+02
3.295818328857421875e+00 -2.028797149658203125e+00 -2.522495388984680176e-01 7.880000000000000000e+02
3.290915727615356445e+00 -2.053729772567749023e+00 -2.530089020729064941e-01 8.580000000000000000e+02
3.284988641738891602e+00 -2.078145980834960938e+00 -2.536838948726654053e-01 8.800000000000000000e+02
3.259593963623046875e+00 -2.090194463729858398e+00 -2.524183094501495361e-01 8.590000000000000000e+02
3.239188432693481445e+00 -2.105268239974975586e+00 -2.516589462757110596e-01 8.180000000000000000e+02
3.222881317138671875e+00 -2.122911214828491211e+00 -2.513214349746704102e-01 8.820000000000000000e+02
3.198192596435546875e+00 -2.134901046752929688e+00 -2.501402199268341064e-01 8.760000000000000000e+02
3.201539278030395508e+00 -2.165651082992553711e+00 -2.518276870250701904e-01 8.770000000000000000e+02
3.197231292724609375e+00 -2.191451787948608398e+00 -2.527557909488677979e-01 8.840000000000000000e+02
3.194363832473754883e+00 -2.218417882919311523e+00 -2.538526356220245361e-01 9.080000000000000000e+02
3.187211036682128906e+00 -2.242563724517822266e+00 -2.545276284217834473e-01 9.440000000000000000e+02
3.175825119018554688e+00 -2.263813018798828125e+00 -2.547807693481445312e-01 9.160000000000000000e+02
3.169144868850708008e+00 -2.288507461547851562e+00 -2.555401027202606201e-01 9.680000000000000000e+02
3.171931743621826172e+00 -2.320264816284179688e+00 -2.573119699954986572e-01 7.210000000000000000e+02
3.179250717163085938e+00 -2.355701446533203125e+00 -2.595900595188140869e-01 9.850000000000000000e+02
3.167924404144287109e+00 -2.377557277679443359e+00 -2.599275410175323486e-01 9.460000000000000000e+02
3.154069662094116211e+00 -2.397553443908691406e+00 -2.600119113922119141e-01 9.790000000000000000e+02
3.153510570526123047e+00 -2.427803277969360352e+00 -2.615306377410888672e-01 9.990000000000000000e+02
3.150068521499633789e+00 -2.487314939498901367e+00 -2.643993198871612549e-01 5.100000000000000000e+02
3.186971664428710938e+00 -2.645985603332519531e+00 -2.752835154533386230e-01 2.900000000000000000e+01
3.947015762329101562e+00 2.813560962677001953e+00 -3.638783395290374756e-01 3.680000000000000000e+02
3.973013877868652344e+00 2.547677755355834961e+00 -3.523218631744384766e-01 1.500000000000000000e+02
3.332081079483032227e+00 1.858634591102600098e+00 -2.703431248664855957e-01 1.500000000000000000e+01
3.282336711883544922e+00 1.804559946060180664e+00 -2.640231847763061523e-01 2.800000000000000000e+01
3.258324384689331055e+00 1.765403747558593750e+00 -2.604117691516876221e-01 2.200000000000000000e+01
3.243619441986083984e+00 1.731771707534790039e+00 -2.577935159206390381e-01 2.500000000000000000e+01
3.204829216003417969e+00 1.685865283012390137e+00 -2.527375519275665283e-01 2.700000000000000000e+01
3.212460756301879883e+00 1.664793968200683594e+00 -2.524667084217071533e-01 1.400000000000000000e+01
3.299516201019287109e+00 -1.617646776139736176e-03 -2.235755175352096558e-01 5.900000000000000000e+01
3.329123020172119141e+00 -4.248441010713577271e-02 -2.262840718030929565e-01 5.200000000000000000e+01
3.956588268280029297e+00 -1.843886137008666992e+00 -3.201804161071777344e-01 5.800000000000000000e+01
3.947900295257568359e+00 -1.869406938552856445e+00 -3.204512596130371094e-01 5.600000000000000000e+01
3.636583328247070312e+00 -1.749431729316711426e+00 -2.902961075305938721e-01 4.510000000000000000e+02
3.690210103988647461e+00 -1.803185582160949707e+00 -2.967966198921203613e-01 8.360000000000000000e+02
3.644282341003417969e+00 -1.808532595634460449e+00 -2.932755053043365479e-01 7.610000000000000000e+02
3.604655265808105469e+00 -1.816521048545837402e+00 -2.903863787651062012e-01 7.240000000000000000e+02
3.575708150863647461e+00 -1.829534053802490234e+00 -2.885806858539581299e-01 8.020000000000000000e+02
3.563531160354614258e+00 -1.850980758666992188e+00 -2.884903848171234131e-01 8.770000000000000000e+02
3.532724142074584961e+00 -1.862595200538635254e+00 -2.865041196346282959e-01 8.770000000000000000e+02
3.489615201950073242e+00 -1.867324829101562500e+00 -2.832538783550262451e-01 9.590000000000000000e+02
3.472840309143066406e+00 -1.885850667953491211e+00 -2.827121615409851074e-01 8.720000000000000000e+02
3.456841945648193359e+00 -1.904721617698669434e+00 -2.822607457637786865e-01 9.880000000000000000e+02
3.433787822723388672e+00 -1.919580459594726562e+00 -2.810870409011840820e-01 9.600000000000000000e+02
3.413281202316284180e+00 -1.935701847076416016e+00 -2.801841795444488525e-01 9.870000000000000000e+02
3.397023200988769531e+00 -1.954126477241516113e+00 -2.797327637672424316e-01 9.150000000000000000e+02
3.382388114929199219e+00 -1.973428130149841309e+00 -2.794618904590606689e-01 9.090000000000000000e+02
3.353072166442871094e+00 -1.984004020690917969e+00 -2.776561975479125977e-01 9.080000000000000000e+02
3.339127302169799805e+00 -2.003516197204589844e+00 -2.774756252765655518e-01 9.510000000000000000e+02
3.317411184310913086e+00 -2.018274307250976562e+00 -2.764824926853179932e-01 9.730000000000000000e+02
3.292249202728271484e+00 -2.030750513076782227e+00 -2.751282155513763428e-01 1.106000000000000000e+03
3.284793853759765625e+00 -2.054080724716186523e+00 -2.756699323654174805e-01 1.038000000000000000e+03
3.277175664901733398e+00 -2.077395677566528320e+00 -2.762116491794586182e-01 9.600000000000000000e+02
3.263529300689697266e+00 -2.096926689147949219e+00 -2.761213481426239014e-01 9.700000000000000000e+02
3.253939867019653320e+00 -2.119085311889648438e+00 -2.764824926853179932e-01 9.740000000000000000e+02
3.236719846725463867e+00 -2.136268854141235352e+00 -2.760310769081115723e-01 1.013000000000000000e+03
3.220239400863647461e+00 -2.153874397277832031e+00 -2.756699323654174805e-01 9.670000000000000000e+02
3.213558673858642578e+00 -2.178062200546264648e+00 -2.763922214508056641e-01 1.063000000000000000e+03
3.221480607986450195e+00 -2.212395429611206055e+00 -2.787396311759948730e-01 1.187000000000000000e+03
3.224196195602416992e+00 -2.243494749069213867e+00 -2.805453240871429443e-01 1.240000000000000000e+03
3.208741664886474609e+00 -2.262088537216186523e+00 -2.803647518157958984e-01 1.237000000000000000e+03
3.193990707397460938e+00 -2.281155586242675781e+00 -2.802744805812835693e-01 7.760000000000000000e+02
3.280802488327026367e+00 -2.373670339584350586e+00 -2.915600836277008057e-01 1.449000000000000000e+03
3.412171840667724609e+00 -2.533053159713745117e+00 -3.097073733806610107e-01 2.807000000000000000e+03
3.183218479156494141e+00 -2.393562078475952148e+00 -2.855109870433807373e-01 1.427000000000000000e+03
3.156586170196533203e+00 -2.403999328613281250e+00 -2.841567099094390869e-01 1.124000000000000000e+03
3.146507978439331055e+00 -2.426971435546875000e+00 -2.846984267234802246e-01 1.103000000000000000e+03
3.975621461868286133e+00 2.589890003204345703e+00 -3.845846652984619141e-01 2.030000000000000000e+02
3.328742504119873047e+00 1.888437271118164062e+00 -2.955741882324218750e-01 3.700000000000000000e+01
3.135634183883666992e+00 1.605003237724304199e+00 -2.660327553749084473e-01 2.400000000000000000e+01
3.276685953140258789e+00 2.055309480056166649e-03 -2.421872168779373169e-01 5.200000000000000000e+01
3.960181713104248047e+00 -1.870047569274902344e+00 -3.491542637348175049e-01 2.800000000000000000e+01
3.636341810226440430e+00 -1.744479417800903320e+00 -3.155581057071685791e-01 3.820000000000000000e+02
3.642569303512573242e+00 -1.775043725967407227e+00 -3.173923790454864502e-01 7.410000000000000000e+02
3.619120836257934570e+00 -1.791179299354553223e+00 -3.160408139228820801e-01 7.340000000000000000e+02
3.600947856903076172e+00 -1.809776067733764648e+00 -3.152684867382049561e-01 7.340000000000000000e+02
3.588888883590698242e+00 -1.831384539604187012e+00 -3.151719570159912109e-01 7.360000000000000000e+02
3.622655868530273438e+00 -1.876722812652587891e+00 -3.200955092906951904e-01 1.951000000000000000e+03
3.512407779693603516e+00 -1.847027182579040527e+00 -3.092829585075378418e-01 6.620000000000000000e+02
3.472910165786743164e+00 -1.853546142578125000e+00 -3.061936795711517334e-01 1.091000000000000000e+03
3.469348430633544922e+00 -1.879087209701538086e+00 -3.070625364780426025e-01 9.910000000000000000e+02
3.452519655227661133e+00 -1.897462725639343262e+00 -3.064832985401153564e-01 9.840000000000000000e+02
3.404301643371582031e+00 -1.898250937461853027e+00 -3.024285733699798584e-01 8.790000000000000000e+02
3.385659456253051758e+00 -1.915182828903198242e+00 -3.016562461853027344e-01 9.180000000000000000e+02
3.369528055191040039e+00 -1.933443784713745117e+00 -3.011735379695892334e-01 9.240000000000000000e+02
3.361902475357055664e+00 -1.956585884094238281e+00 -3.016562461853027344e-01 9.690000000000000000e+02
3.349833726882934570e+00 -1.977177262306213379e+00 -3.016562461853027344e-01 9.480000000000000000e+02
3.340200901031494141e+00 -1.999227881431579590e+00 -3.019458651542663574e-01 1.190000000000000000e+03
3.326169252395629883e+00 -2.018652439117431641e+00 -3.017528057098388672e-01 1.224000000000000000e+03
3.315415859222412109e+00 -2.040066719055175781e+00 -3.019458651542663574e-01 1.207000000000000000e+03
3.299458026885986328e+00 -2.058264017105102539e+00 -3.015597164630889893e-01 1.199000000000000000e+03
3.285925388336181641e+00 -2.077938318252563477e+00 -3.014631867408752441e-01 1.142000000000000000e+03
3.264734268188476562e+00 -2.092689752578735352e+00 -3.004977703094482422e-01 9.630000000000000000e+02
3.261013031005859375e+00 -2.118647575378417969e+00 -3.015597164630889893e-01 1.136000000000000000e+03
3.247951984405517578e+00 -2.138616800308227539e+00 -3.015597164630889893e-01 1.203000000000000000e+03
3.232284784317016602e+00 -2.156848192214965820e+00 -3.012700974941253662e-01 1.138000000000000000e+03
3.223936796188354492e+00 -2.179986000061035156e+00 -3.018493354320526123e-01 1.193000000000000000e+03
3.204752445220947266e+00 -2.195788145065307617e+00 -3.011735379695892334e-01 1.121000000000000000e+03
3.216564416885375977e+00 -2.233007907867431641e+00 -3.041663169860839844e-01 1.240000000000000000e+03
3.171866655349731445e+00 -2.230941534042358398e+00 -3.004977703094482422e-01 7.230000000000000000e+02
3.214047431945800781e+00 -2.290218353271484375e+00 -3.071590662002563477e-01 8.710000000000000000e+02
3.279828310012817383e+00 -2.367573261260986328e+00 -3.167165815830230713e-01 1.227000000000000000e+03
3.298179626464843750e+00 -2.411742448806762695e+00 -3.206747770309448242e-01 1.535000000000000000e+03
3.322509288787841797e+00 -2.460964441299438477e+00 -3.254052400588989258e-01 1.816000000000000000e+03
3.187924385070800781e+00 -2.391702175140380859e+00 -3.109241425991058350e-01 9.480000000000000000e+02
3.176359176635742188e+00 -2.413626670837402344e+00 -3.113103210926055908e-01 1.841000000000000000e+03
3.137644052505493164e+00 -2.476617813110351562e+00 -3.120826482772827148e-01 6.680000000000000000e+02
3.211480140686035156e+00 -2.665391921997070312e+00 -3.291703462600708008e-01 3.400000000000000000e+02
3.976381063461303711e+00 2.834498167037963867e+00 -4.271982014179229736e-01 4.480000000000000000e+02
3.375568628311157227e+00 1.910151839256286621e+00 -3.237284123897552490e-01 7.600000000000000000e+01
3.108966588973999023e+00 1.587017178535461426e+00 -2.837747633457183838e-01 5.100000000000000000e+01
3.298616170883178711e+00 -1.617342466488480568e-03 -2.640027999877929688e-01 3.800000000000000000e+01
3.879412412643432617e+00 -1.836986303329467773e+00 -3.663456737995147705e-01 1.100000000000000000e+02
3.649331331253051758e+00 -1.755562424659729004e+00 -3.413490056991577148e-01 8.300000000000000000e+02
3.642066001892089844e+00 -1.779667735099792480e+00 -3.417587876319885254e-01 8.610000000000000000e+02
3.618602037429809570e+00 -1.795792222023010254e+00 -3.403245806694030762e-01 1.028000000000000000e+03
3.599519729614257812e+00 -1.813933849334716797e+00 -3.394025564193725586e-01 6.520000000000000000e+02
3.596292495727539062e+00 -1.840062856674194336e+00 -3.403245806694030762e-01 3.670000000000000000e+02
3.607887506484985352e+00 -1.874013423919677734e+00 -3.429881334304809570e-01 5.240000000000000000e+02
3.552321672439575195e+00 -1.872924566268920898e+00 -3.378658890724182129e-01 4.170000000000000000e+02
3.467084407806396484e+00 -1.855272054672241211e+00 -3.292604684829711914e-01 4.920000000000000000e+02
3.488856077194213867e+00 -1.894545078277587891e+00 -3.331533968448638916e-01 1.349000000000000000e+03
3.468452692031860352e+00 -1.911117196083068848e+00 -3.321289420127868652e-01 1.401000000000000000e+03
3.447977542877197266e+00 -1.927510499954223633e+00 -3.311044871807098389e-01 1.385000000000000000e+03
3.430893659591674805e+00 -1.945686936378479004e+00 -3.304898142814636230e-01 1.329000000000000000e+03
3.403368949890136719e+00 -1.957775712013244629e+00 -3.286457955837249756e-01 1.311000000000000000e+03
3.380980968475341797e+00 -1.972607493400573730e+00 -3.274164497852325439e-01 1.281000000000000000e+03
3.367957592010498047e+00 -1.992809176445007324e+00 -3.273140192031860352e-01 1.308000000000000000e+03
3.351401329040527344e+00 -2.010878562927246094e+00 -3.268017768859863281e-01 1.349000000000000000e+03
3.334750175476074219e+00 -2.028820037841796875e+00 -3.262895643711090088e-01 1.292000000000000000e+03
3.306998252868652344e+00 -2.039845466613769531e+00 -3.244455456733703613e-01 1.193000000000000000e+03
3.290202379226684570e+00 -2.057461738586425781e+00 -3.239333033561706543e-01 1.242000000000000000e+03
3.287598848342895508e+00 -2.084001064300537109e+00 -3.251626491546630859e-01 1.330000000000000000e+03
3.275586605072021484e+00 -2.104671716690063477e+00 -3.252651095390319824e-01 1.328000000000000000e+03
3.255108356475830078e+00 -2.119846105575561523e+00 -3.243430852890014648e-01 1.247000000000000000e+03
3.237058162689208984e+00 -2.136492013931274414e+00 -3.237284123897552490e-01 1.192000000000000000e+03
3.228849411010742188e+00 -2.159631729125976562e+00 -3.243430852890014648e-01 1.133000000000000000e+03
3.196596860885620117e+00 -2.166568994522094727e+00 -3.219868540763854980e-01 1.004000000000000000e+03
3.224246025085449219e+00 -2.214293956756591797e+00 -3.271091282367706299e-01 1.355000000000000000e+03
3.222847461700439453e+00 -2.242556571960449219e+00 -3.286457955837249756e-01 1.300000000000000000e+03
3.381283521652221680e+00 -2.414884328842163086e+00 -3.522082269191741943e-01 2.225000000000000000e+03
3.357536315917968750e+00 -2.429173231124877930e+00 -3.510813117027282715e-01 2.114000000000000000e+03
3.392317056655883789e+00 -2.486180067062377930e+00 -3.574329316616058350e-01 3.113000000000000000e+03
3.289132356643676758e+00 -2.441736221313476562e+00 -3.461639583110809326e-01 3.006000000000000000e+03
3.247848987579345703e+00 -2.442147254943847656e+00 -3.427832424640655518e-01 1.269000000000000000e+03
3.206685543060302734e+00 -2.442144155502319336e+00 -3.394025564193725586e-01 1.632000000000000000e+03
3.151465892791748047e+00 -2.430794715881347656e+00 -3.341778516769409180e-01 1.205000000000000000e+03
3.278862714767456055e+00 1.860142588615417480e+00 -3.350623846054077148e-01 7.400000000000000000e+01
3.088456392288208008e+00 1.580857634544372559e+00 -3.023417890071868896e-01 4.600000000000000000e+01
3.302523374557495117e+00 2.070247428491711617e-03 -2.841396033763885498e-01 5.300000000000000000e+01
3.771119832992553711e+00 -1.752543568611145020e+00 -3.774258196353912354e-01 3.290000000000000000e+02
3.846590995788574219e+00 -1.816403508186340332e+00 -3.878270685672760010e-01 8.300000000000000000e+01
3.631915092468261719e+00 -1.742355585098266602e+00 -3.632324337959289551e-01 6.100000000000000000e+02
3.652433156967163086e+00 -1.779850959777832031e+00 -3.670245707035064697e-01 7.650000000000000000e+02
3.626297473907470703e+00 -1.794731497764587402e+00 -3.651826679706573486e-01 1.075000000000000000e+03
3.661404609680175781e+00 -1.840163707733154297e+00 -3.708166778087615967e-01 1.208000000000000000e+03
3.627022266387939453e+00 -1.850845813751220703e+00 -3.679996728897094727e-01 4.450000000000000000e+02
3.618245601654052734e+00 -1.874437928199768066e+00 -3.683247268199920654e-01 6.290000000000000000e+02
3.573241472244262695e+00 -1.879020214080810547e+00 -3.642075657844543457e-01 3.490000000000000000e+02
3.522179841995239258e+00 -1.879844665527343750e+00 -3.593319654464721680e-01 4.840000000000000000e+02
3.468621730804443359e+00 -1.878693580627441406e+00 -3.541313409805297852e-01 7.400000000000000000e+02
3.477937459945678711e+00 -1.911433458328247070e+00 -3.567316532135009766e-01 1.156000000000000000e+03
3.439228296279907227e+00 -1.917728185653686523e+00 -3.533729314804077148e-01 1.199000000000000000e+03
3.402304410934448242e+00 -1.924599409103393555e+00 -3.502308726310729980e-01 1.225000000000000000e+03
3.397329092025756836e+00 -1.949397683143615723e+00 -3.510976433753967285e-01 1.285000000000000000e+03
3.387022256851196289e+00 -1.971206784248352051e+00 -3.513143360614776611e-01 1.289000000000000000e+03
3.363734245300292969e+00 -1.985382556915283203e+00 -3.499058485031127930e-01 1.225000000000000000e+03
3.342959165573120117e+00 -2.000878810882568359e+00 -3.488223850727081299e-01 1.232000000000000000e+03
3.331468820571899414e+00 -2.021868944168090820e+00 -3.489307165145874023e-01 1.207000000000000000e+03
3.321540117263793945e+00 -2.043835639953613281e+00 -3.492557704448699951e-01 1.223000000000000000e+03
3.300502538681030273e+00 -2.058915615081787109e+00 -3.481723070144653320e-01 1.220000000000000000e+03
3.277724742889404297e+00 -2.072751998901367188e+00 -3.468721508979797363e-01 1.191000000000000000e+03
3.258249759674072266e+00 -2.088532686233520508e+00 -3.460053801536560059e-01 1.169000000000000000e+03
3.226200580596923828e+00 -2.096028089523315430e+00 -3.435133993625640869e-01 8.140000000000000000e+02
3.218260288238525391e+00 -2.119064569473266602e+00 -3.441634774208068848e-01 9.940000000000000000e+02
3.142353534698486328e+00 -2.096833229064941406e+00 -3.359291553497314453e-01 4.250000000000000000e+02
3.211777687072753906e+00 -2.171763420104980469e+00 -3.467637896537780762e-01 1.110000000000000000e+03
3.209872245788574219e+00 -2.199296474456787109e+00 -3.482806384563446045e-01 1.131000000000000000e+03
3.207749605178833008e+00 -2.226887941360473633e+00 -3.497974872589111328e-01 1.220000000000000000e+03
3.166379928588867188e+00 -2.227082014083862305e+00 -3.461137115955352783e-01 7.670000000000000000e+02
3.209325551986694336e+00 -2.286853551864624023e+00 -3.536979556083679199e-01 8.970000000000000000e+02
3.365303993225097656e+00 -2.429280042648315430e+00 -3.765590488910675049e-01 2.322000000000000000e+03
3.298979043960571289e+00 -2.412327051162719727e+00 -3.696248829364776611e-01 1.821000000000000000e+03
3.254558801651000977e+00 -2.410629749298095703e+00 -3.656160533428192139e-01 1.417000000000000000e+03
3.339102983474731445e+00 -2.505131483078002930e+00 -3.791593611240386963e-01 2.284000000000000000e+03
3.204944133758544922e+00 -2.435349464416503906e+00 -3.629074096679687500e-01 1.330000000000000000e+03
3.152126550674438477e+00 -2.425864696502685547e+00 -3.577067852020263672e-01 1.155000000000000000e+03
3.115877866744995117e+00 -2.459435701370239258e+00 -3.568400144577026367e-01 7.550000000000000000e+02
3.217514514923095703e+00 -2.670400381088256836e+00 -3.799177706241607666e-01 6.190000000000000000e+02
3.399751424789428711e+00 1.923840284347534180e+00 -3.733376860618591309e-01 2.180000000000000000e+02
3.104963779449462891e+00 1.584973216056823730e+00 -3.250126242637634277e-01 4.900000000000000000e+01
3.298343658447265625e+00 -1.617250265553593636e-03 -3.034206032752990723e-01 8.200000000000000000e+01
3.820760011672973633e+00 -1.780605316162109375e+00 -4.088674485683441162e-01 1.065000000000000000e+03
3.680461168289184570e+00 -1.742806911468505859e+00 -3.924163579940795898e-01 2.670000000000000000e+02
3.616875410079956055e+00 -1.739953994750976562e+00 -3.856759965419769287e-01 8.980000000000000000e+02
3.625769138336181641e+00 -1.771706938743591309e+00 -3.881893455982208252e-01 8.800000000000000000e+02
3.585461616516113281e+00 -1.779350876808166504e+00 -3.844193220138549805e-01 1.068000000000000000e+03
3.681830406188964844e+00 -1.855400443077087402e+00 -3.982428014278411865e-01 1.264000000000000000e+03
3.597850561141967773e+00 -1.840859770774841309e+00 -3.888748288154602051e-01 5.280000000000000000e+02
3.576788902282714844e+00 -1.857865095138549805e+00 -3.876181244850158691e-01 5.080000000000000000e+02
3.560927867889404297e+00 -1.877460718154907227e+00 -3.870469033718109131e-01 4.920000000000000000e+02
3.556348800659179688e+00 -1.903023719787597656e+00 -3.879608809947967529e-01 1.615000000000000000e+03
3.453803062438964844e+00 -1.875516057014465332e+00 -3.760795295238494873e-01 9.180000000000000000e+02
3.457022905349731445e+00 -1.904821276664733887e+00 -3.780216574668884277e-01 1.330000000000000000e+03
3.440934181213378906e+00 -1.923574090003967285e+00 -3.774504661560058594e-01 1.363000000000000000e+03
3.410917758941650391e+00 -1.934361815452575684e+00 -3.750513494014739990e-01 1.308000000000000000e+03
3.405874252319335938e+00 -1.959216475486755371e+00 -3.759652972221374512e-01 1.360000000000000000e+03
3.384348869323730469e+00 -1.974571824073791504e+00 -3.747085928916931152e-01 1.354000000000000000e+03
3.363618850708007812e+00 -1.990242719650268555e+00 -3.735661804676055908e-01 1.329000000000000000e+03
3.340268373489379883e+00 -2.004200696945190430e+00 -3.720810115337371826e-01 1.324000000000000000e+03
3.309234619140625000e+00 -2.013301134109497070e+00 -3.695676326751708984e-01 1.263000000000000000e+03
3.284134864807128906e+00 -2.025746822357177734e+00 -3.678539991378784180e-01 1.183000000000000000e+03
3.300284624099731445e+00 -2.063764810562133789e+00 -3.717382848262786865e-01 1.268000000000000000e+03
3.299307346343994141e+00 -2.091420888900756836e+00 -3.733376860618591309e-01 1.638000000000000000e+03
3.266351938247680664e+00 -2.098739624023437500e+00 -3.705958425998687744e-01 2.131000000000000000e+03
3.191803693771362305e+00 -2.078631401062011719e+00 -3.621418178081512451e-01 7.830000000000000000e+02
3.200548887252807617e+00 -2.112402439117431641e+00 -3.651121556758880615e-01 1.083000000000000000e+03
3.148712873458862305e+00 -2.106046915054321289e+00 -3.597427010536193848e-01 6.940000000000000000e+02
3.220441818237304688e+00 -2.182726144790649414e+00 -3.715097904205322266e-01 1.239000000000000000e+03
3.216816425323486328e+00 -2.209192991256713867e+00 -3.728806972503662109e-01 1.328000000000000000e+03
3.211355686187744141e+00 -2.234562397003173828e+00 -3.740231394767761230e-01 1.432000000000000000e+03
3.201644420623779297e+00 -2.257086515426635742e+00 -3.745943605899810791e-01 1.000000000000000000e+03
3.210373401641845703e+00 -2.292852878570556641e+00 -3.777931928634643555e-01 8.710000000000000000e+02
3.208318471908569336e+00 -2.321241855621337891e+00 -3.795068264007568359e-01 8.590000000000000000e+02
3.138049125671386719e+00 -2.359606742858886719e+00 -3.756225705146789551e-01 9.300000000000000000e+02
3.142481803894042969e+00 -2.393260478973388672e+00 -3.783644139766693115e-01 1.128000000000000000e+03
3.137178421020507812e+00 -2.419777154922485352e+00 -3.797353208065032959e-01 1.081000000000000000e+03
3.338635206222534180e+00 1.893281579017639160e+00 -3.884997069835662842e-01 7.830000000000000000e+02
3.096024751663208008e+00 1.584051966667175293e+00 -3.448900282382965088e-01 5.690000000000000000e+02
3.242443799972534180e+00 1.472001196816563606e-03 -3.164176046848297119e-01 7.300000000000000000e+01
3.824201822280883789e+00 -1.778023838996887207e+00 -4.343919754028320312e-01 8.850000000000000000e+02
3.731537342071533203e+00 -1.762862443923950195e+00 -4.234595298767089844e-01 1.300000000000000000e+02
3.594456195831298828e+00 -1.725152492523193359e+00 -4.065202176570892334e-01 6.260000000000000000e+02
3.611465692520141602e+00 -1.760662674903869629e+00 -4.102444648742675781e-01 8.040000000000000000e+02
3.592587709426879883e+00 -1.778824090957641602e+00 -4.091632366180419922e-01 8.990000000000000000e+02
3.609987258911132812e+00 -1.815106272697448730e+00 -4.130076169967651367e-01 9.760000000000000000e+02
3.614697217941284180e+00 -1.845348358154296875e+00 -4.151700735092163086e-01 4.570000000000000000e+02
3.607713460922241211e+00 -1.869777202606201172e+00 -4.157707691192626953e-01 7.620000000000000000e+02
3.565422534942626953e+00 -1.875699877738952637e+00 -4.115659594535827637e-01 2.260000000000000000e+02
3.464522600173950195e+00 -1.849843382835388184e+00 -3.993120193481445312e-01 3.530000000000000000e+02
3.424303531646728516e+00 -1.855457663536071777e+00 -3.953475058078765869e-01 8.380000000000000000e+02
3.445041179656982422e+00 -1.894132494926452637e+00 -3.997925519943237305e-01 1.280000000000000000e+03
3.433354139328002930e+00 -1.915235161781311035e+00 -3.997925519943237305e-01 1.254000000000000000e+03
3.420673847198486328e+00 -1.935776829719543457e+00 -3.996724188327789307e-01 1.369000000000000000e+03
