# .PCD v.7 - Point Cloud Data file format
VERSION .7
FIELDS x y z intensity
SIZE 4 4 4 4
TYPE F F F F
COUNT 1 1 1 1
WIDTH 475
HEIGHT 1
VIEWPOINT 0 0 0 1 0 0 0
POINTS 475
DATA ascii
2.173427820205688477e+00 -1.328964591026306152e+00 2.688150703907012939e-01 8.100000000000000000e+01
2.149814605712890625e+00 -1.323599338531494141e+00 2.670545578002929688e-01 7.300000000000000000e+01
2.140659809112548828e+00 -1.327035665512084961e+00 2.665952742099761963e-01 7.500000000000000000e+01
2.174635648727416992e+00 -1.357361793518066406e+00 2.700397968292236328e-01 4.190000000000000000e+02
2.172993421554565430e+00 -1.365619182586669922e+00 2.702694535255432129e-01 1.260000000000000000e+02
2.134252548217773438e+00 -1.350414514541625977e+00 2.671310901641845703e-01 5.300000000000000000e+01
2.118328094482421875e+00 -1.349453806877136230e+00 2.660594582557678223e-01 4.300000000000000000e+01
2.135157346725463867e+00 -1.369407534599304199e+00 2.679730951786041260e-01 8.400000000000000000e+01
2.083207607269287109e+00 -1.345113515853881836e+00 2.636100351810455322e-01 3.400000000000000000e+01
2.053159475326538086e+00 -1.334647178649902344e+00 2.612371146678924561e-01 2.900000000000000000e+01
1.996501684188842773e+00 -1.306532382965087891e+00 2.564148008823394775e-01 1.800000000000000000e+01
2.004138946533203125e+00 -1.320333361625671387e+00 2.574864327907562256e-01 1.600000000000000000e+01
1.972661852836608887e+00 -1.308284163475036621e+00 2.549604475498199463e-01 1.600000000000000000e+01
1.945423364639282227e+00 -1.298823595046997070e+00 2.528171837329864502e-01 8.000000000000000000e+00
1.887049198150634766e+00 -1.276644229888916016e+00 2.481479346752166748e-01 1.000000000000000000e+01
1.829269766807556152e+00 -1.262236475944519043e+00 2.438614070415496826e-01 1.500000000000000000e+01
1.810650587081909180e+00 -1.257601141929626465e+00 2.424836009740829468e-01 2.000000000000000000e+01
1.757509946823120117e+00 -1.244812011718750000e+00 2.385798096656799316e-01 1.400000000000000000e+01
1.756117820739746094e+00 -1.251935005187988281e+00 2.388094365596771240e-01 2.600000000000000000e+01
1.743359088897705078e+00 -1.250920653343200684e+00 2.379674464464187622e-01 2.900000000000000000e+01
1.735472202301025391e+00 -1.253343582153320312e+00 2.375847250223159790e-01 2.800000000000000000e+01
1.751778364181518555e+00 -1.273322701454162598e+00 2.394983470439910889e-01 3.700000000000000000e+01
1.767173528671264648e+00 -1.292824506759643555e+00 2.413354218006134033e-01 6.000000000000000000e+01
1.754368424415588379e+00 -1.291735053062438965e+00 2.404934316873550415e-01 5.300000000000000000e+01
1.751198053359985352e+00 -1.297705173492431641e+00 2.405699789524078369e-01 4.900000000000000000e+01
1.752003312110900879e+00 -1.306649327278137207e+00 2.410292476415634155e-01 5.100000000000000000e+01
1.727256774902343750e+00 -1.296451449394226074e+00 2.390390783548355103e-01 6.000000000000000000e+01
1.717703104019165039e+00 -1.297536253929138184e+00 2.385032624006271362e-01 4.800000000000000000e+01
1.716888546943664551e+00 -1.305214405059814453e+00 2.388094365596771240e-01 4.000000000000000000e+01
1.693082571029663086e+00 -1.295324683189392090e+00 2.368958145380020142e-01 5.900000000000000000e+01
1.696209549903869629e+00 -1.305989146232604980e+00 2.375847250223159790e-01 5.500000000000000000e+01
1.692982792854309082e+00 -1.311797738075256348e+00 2.376612722873687744e-01 4.100000000000000000e+01
1.661435604095458984e+00 -1.295520067214965820e+00 2.349821925163269043e-01 4.200000000000000000e+01
1.648826479911804199e+00 -1.293838500976562500e+00 2.341402024030685425e-01 5.700000000000000000e+01
1.640937447547912598e+00 -1.295800328254699707e+00 2.337574660778045654e-01 6.100000000000000000e+01
1.629930257797241211e+00 -1.295243978500366211e+00 2.330685704946517944e-01 5.600000000000000000e+01
1.623613119125366211e+00 -1.298369765281677246e+00 2.328389286994934082e-01 6.500000000000000000e+01
1.623505353927612305e+00 -1.306471228599548340e+00 2.332216501235961914e-01 4.700000000000000000e+01
1.624912500381469727e+00 -1.315839648246765137e+00 2.337574660778045654e-01 4.900000000000000000e+01
1.628595709800720215e+00 -1.327118992805480957e+00 2.345229238271713257e-01 4.900000000000000000e+01
1.619120597839355469e+00 -1.327682375907897949e+00 2.339871078729629517e-01 4.800000000000000000e+01
1.617346405982971191e+00 -1.334547758102416992e+00 2.342167347669601440e-01 5.600000000000000000e+01
1.592536807060241699e+00 -1.322301149368286133e+00 2.321500182151794434e-01 5.400000000000000000e+01
1.561697721481323242e+00 -1.304799079895019531e+00 2.294709533452987671e-01 6.700000000000000000e+01
1.556161284446716309e+00 -1.308300614356994629e+00 2.293178588151931763e-01 6.100000000000000000e+01
1.533113837242126465e+00 -1.296964764595031738e+00 2.274042367935180664e-01 5.900000000000000000e+01
1.520018696784973145e+00 -1.293904304504394531e+00 2.264856994152069092e-01 6.300000000000000000e+01
1.508471012115478516e+00 -1.292073488235473633e+00 2.257202416658401489e-01 6.200000000000000000e+01
1.493173480033874512e+00 -1.286928296089172363e+00 2.245720624923706055e-01 8.000000000000000000e+01
1.489218115806579590e+00 -1.291503190994262695e+00 2.245720624923706055e-01 6.100000000000000000e+01
1.488253235816955566e+00 -1.298689007759094238e+00 2.248782515525817871e-01 7.400000000000000000e+01
1.480516552925109863e+00 -1.299958586692810059e+00 2.244955301284790039e-01 6.600000000000000000e+01
1.478015422821044922e+00 -1.305815339088439941e+00 2.246486097574234009e-01 5.100000000000000000e+01
1.467297196388244629e+00 -1.304379940032958984e+00 2.239597141742706299e-01 6.900000000000000000e+01
1.461059570312500000e+00 -1.306880593299865723e+00 2.237300723791122437e-01 6.800000000000000000e+01
1.457043170928955078e+00 -1.311356902122497559e+00 2.237300723791122437e-01 7.900000000000000000e+01
3.898907184600830078e+00 2.796343326568603516e+00 4.130398333072662354e-01 8.900000000000000000e+01
3.925339460372924805e+00 2.797104120254516602e+00 4.145936369895935059e-01 1.100000000000000000e+02
3.942043542861938477e+00 2.790812253952026367e+00 4.152998924255371094e-01 1.060000000000000000e+02
3.981590270996093750e+00 2.800513267517089844e+00 4.179837107658386230e-01 9.700000000000000000e+01
4.032680034637451172e+00 2.817997217178344727e+00 4.216563403606414795e-01 5.100000000000000000e+01
4.031474113464355469e+00 2.798785209655761719e+00 4.208087921142578125e-01 8.400000000000000000e+01
4.059748649597167969e+00 2.799996376037597656e+00 4.225038588047027588e-01 9.700000000000000000e+01
4.087245464324951172e+00 2.800496578216552734e+00 4.241282641887664795e-01 8.200000000000000000e+01
4.127976894378662109e+00 2.809835195541381836e+00 4.268827140331268311e-01 7.800000000000000000e+01
4.176240444183349609e+00 2.823979139328002930e+00 4.302728176116943359e-01 4.400000000000000000e+01
4.195648670196533203e+00 2.818384408950805664e+00 4.311909675598144531e-01 5.000000000000000000e+01
4.196808338165283203e+00 2.800515890121459961e+00 4.305553138256072998e-01 6.100000000000000000e+01
4.210368633270263672e+00 2.790933847427368164e+00 4.309791028499603271e-01 3.100000000000000000e+01
3.616583347320556641e+00 2.381364345550537109e+00 3.799157738685607910e-01 3.200000000000000000e+01
3.648915529251098633e+00 2.386639118194580078e+00 3.820345997810363770e-01 1.660000000000000000e+02
3.666257858276367188e+00 2.381954908370971680e+00 3.828821182250976562e-01 1.430000000000000000e+02
3.693662881851196289e+00 2.383677482604980469e+00 3.845771551132202148e-01 1.550000000000000000e+02
3.683323383331298828e+00 2.361029386520385742e+00 3.830939829349517822e-01 1.300000000000000000e+02
3.703170776367187500e+00 2.357754230499267578e+00 3.841533958911895752e-01 1.250000000000000000e+02
3.709543943405151367e+00 2.345848798751831055e+00 3.840827643871307373e-01 1.420000000000000000e+02
3.719257354736328125e+00 2.336048841476440430e+00 3.842946588993072510e-01 1.070000000000000000e+02
3.715404748916625977e+00 2.317763328552246094e+00 3.833765089511871338e-01 1.300000000000000000e+02
3.715714693069458008e+00 2.302150726318359375e+00 3.828114867210388184e-01 1.270000000000000000e+02
3.752493858337402344e+00 2.309037685394287109e+00 3.852834403514862061e-01 1.200000000000000000e+02
3.735728502273559570e+00 2.282949447631835938e+00 3.833058774471282959e-01 1.140000000000000000e+02
3.760622024536132812e+00 2.282346487045288086e+00 3.847890496253967285e-01 1.180000000000000000e+02
3.780421018600463867e+00 2.278522491455078125e+00 3.858484327793121338e-01 1.200000000000000000e+02
3.802799701690673828e+00 2.276135444641113281e+00 3.871197402477264404e-01 1.200000000000000000e+02
3.820054292678833008e+00 2.270574331283569336e+00 3.879672586917877197e-01 1.310000000000000000e+02
3.821848154067993164e+00 2.255801439285278320e+00 3.875434994697570801e-01 1.220000000000000000e+02
3.834774732589721680e+00 2.247596502304077148e+00 3.880378901958465576e-01 1.100000000000000000e+02
3.833893299102783203e+00 2.231305122375488281e+00 3.874022364616394043e-01 1.210000000000000000e+02
3.813084363937377930e+00 2.203559875488281250e+00 3.851421773433685303e-01 8.300000000000000000e+01
3.859624624252319336e+00 2.214689493179321289e+00 3.883910179138183594e-01 1.130000000000000000e+02
3.836933612823486328e+00 2.186047792434692383e+00 3.859896957874298096e-01 9.100000000000000000e+01
3.829730987548828125e+00 2.166407346725463867e+00 3.848596811294555664e-01 1.000000000000000000e+02
3.858102083206176758e+00 2.166860103607177734e+00 3.866253495216369629e-01 9.000000000000000000e+01
3.862989425659179688e+00 2.154041767120361328e+00 3.864840865135192871e-01 1.070000000000000000e+02
3.878306388854980469e+00 2.147011756896972656e+00 3.871903717517852783e-01 1.230000000000000000e+02
3.910225868225097656e+00 2.149036884307861328e+00 3.892385363578796387e-01 9.800000000000000000e+01
3.924681186676025391e+00 2.141330480575561523e+00 3.898741900920867920e-01 9.000000000000000000e+01
3.933863639831542969e+00 2.130704879760742188e+00 3.900860548019409180e-01 1.060000000000000000e+02
3.921932458877563477e+00 2.108705282211303711e+00 3.886028826236724854e-01 1.020000000000000000e+02
3.925743579864501953e+00 2.095253944396972656e+00 3.883910179138183594e-01 8.300000000000000000e+01
3.924220323562622070e+00 2.078997135162353516e+00 3.877553641796112061e-01 1.000000000000000000e+02
3.934994459152221680e+00 2.069269418716430664e+00 3.881085216999053955e-01 1.060000000000000000e+02
3.919217348098754883e+00 2.045647621154785156e+00 3.863428235054016113e-01 8.400000000000000000e+01
3.932560443878173828e+00 2.037284851074218750e+00 3.869078457355499268e-01 8.400000000000000000e+01
3.928147077560424805e+00 2.019736528396606445e+00 3.860603272914886475e-01 7.800000000000000000e+01
3.965422153472900391e+00 2.023545742034912109e+00 3.885322809219360352e-01 1.050000000000000000e+02
3.984069824218750000e+00 2.017680406570434570e+00 3.895210325717926025e-01 8.900000000000000000e+01
4.007174968719482422e+00 2.013959407806396484e+00 3.908629715442657471e-01 9.700000000000000000e+01
4.038328170776367188e+00 2.014122724533081055e+00 3.928405046463012695e-01 9.800000000000000000e+01
4.039124965667724609e+00 1.999068856239318848e+00 3.924167454242706299e-01 9.200000000000000000e+01
4.056878089904785156e+00 1.992384433746337891e+00 3.933348953723907471e-01 9.100000000000000000e+01
4.059384822845458984e+00 1.978180646896362305e+00 3.930523991584777832e-01 5.800000000000000000e+01
4.044780254364013672e+00 1.955729603767395020e+00 3.914279639720916748e-01 8.800000000000000000e+01
4.068748474121093750e+00 1.951941013336181641e+00 3.928405046463012695e-01 7.100000000000000000e+01
4.072916507720947266e+00 1.938591718673706055e+00 3.926992714405059814e-01 9.200000000000000000e+01
4.073432922363281250e+00 1.923531174659729004e+00 3.922755122184753418e-01 9.000000000000000000e+01
4.081121444702148438e+00 1.911871433258056641e+00 3.924167454242706299e-01 9.900000000000000000e+01
4.078826427459716797e+00 1.895557880401611328e+00 3.917811214923858643e-01 9.700000000000000000e+01
4.093681335449218750e+00 1.887211799621582031e+00 3.924873769283294678e-01 8.400000000000000000e+01
4.084938049316406250e+00 1.868005871772766113e+00 3.913573622703552246e-01 8.700000000000000000e+01
4.112451553344726562e+00 1.865354537963867188e+00 3.930523991584777832e-01 7.500000000000000000e+01
4.112697124481201172e+00 1.850273251533508301e+00 3.926286399364471436e-01 6.300000000000000000e+01
4.137483596801757812e+00 1.846183419227600098e+00 3.941118121147155762e-01 7.900000000000000000e+01
4.146776676177978516e+00 1.835095882415771484e+00 3.943943083286285400e-01 8.500000000000000000e+01
4.187096118927001953e+00 1.837599396705627441e+00 3.970781266689300537e-01 8.100000000000000000e+01
4.179909229278564453e+00 1.819171547889709473e+00 3.960893452167510986e-01 7.200000000000000000e+01
4.167153835296630859e+00 1.798433423042297363e+00 3.946768045425415039e-01 9.000000000000000000e+01
4.192826747894287109e+00 1.794274806976318359e+00 3.962306082248687744e-01 7.200000000000000000e+01
4.213004112243652344e+00 1.787637591361999512e+00 3.973606526851654053e-01 7.800000000000000000e+01
4.223985195159912109e+00 1.777024865150451660e+00 3.977844119071960449e-01 8.400000000000000000e+01
4.220211029052734375e+00 1.760217308998107910e+00 3.970781266689300537e-01 8.100000000000000000e+01
4.229278564453125000e+00 1.748786449432373047e+00 3.973606526851654053e-01 7.400000000000000000e+01
4.242007255554199219e+00 1.738829851150512695e+00 3.979256451129913330e-01 7.100000000000000000e+01
4.246397972106933594e+00 1.725431799888610840e+00 3.978550434112548828e-01 7.800000000000000000e+01
4.269251346588134766e+00 1.719477176666259766e+00 3.991969525814056396e-01 6.600000000000000000e+01
4.283770561218261719e+00 1.710069775581359863e+00 3.999032080173492432e-01 8.200000000000000000e+01
4.301982402801513672e+00 1.702057361602783203e+00 4.008919894695281982e-01 8.400000000000000000e+01
4.317399024963378906e+00 1.692856907844543457e+00 4.016688764095306396e-01 6.700000000000000000e+01
4.338378429412841797e+00 1.685745596885681152e+00 4.028695523738861084e-01 6.900000000000000000e+01
4.355631351470947266e+00 1.677087664604187012e+00 4.037877023220062256e-01 8.100000000000000000e+01
4.356096267700195312e+00 1.661938905715942383e+00 4.034345746040344238e-01 7.600000000000000000e+01
4.360241413116455078e+00 1.648214101791381836e+00 4.033639430999755859e-01 5.700000000000000000e+01
4.365277290344238281e+00 1.634829282760620117e+00 4.033639430999755859e-01 6.800000000000000000e+01
4.349698066711425781e+00 1.613794922828674316e+00 4.018101394176483154e-01 6.500000000000000000e+01
4.368672847747802734e+00 1.605604648590087891e+00 4.028695523738861084e-01 6.300000000000000000e+01
4.279847145080566406e+00 1.558067917823791504e+00 3.958068490028381348e-01 2.700000000000000000e+01
4.191630363464355469e+00 1.496885418891906738e+00 3.884616494178771973e-01 8.000000000000000000e+00
8.555952072143554688e+00 3.026053905487060547e+00 7.158883213996887207e-01 2.300000000000000000e+01
8.577434539794921875e+00 3.004076957702636719e+00 7.168064713478088379e-01 1.200000000000000000e+01
8.626193046569824219e+00 2.991475105285644531e+00 7.197728157043457031e-01 1.700000000000000000e+01
8.741937637329101562e+00 3.001602888107299805e+00 7.277536988258361816e-01 1.400000000000000000e+01
8.747327804565429688e+00 2.973484754562377930e+00 7.274711728096008301e-01 6.000000000000000000e+00
8.969124794006347656e+00 3.018219709396362305e+00 7.433622479438781738e-01 9.000000000000000000e+00
9.215882301330566406e+00 3.069817781448364258e+00 7.610896229743957520e-01 6.000000000000000000e+00
9.297254562377929688e+00 3.065268039703369141e+00 7.664572596549987793e-01 9.000000000000000000e+00
9.357823371887207031e+00 3.053440093994140625e+00 7.702711224555969238e-01 1.300000000000000000e+01
9.384233474731445312e+00 3.030233860015869141e+00 7.715424299240112305e-01 9.000000000000000000e+00
9.573067665100097656e+00 3.058813095092773438e+00 7.848908901214599609e-01 1.400000000000000000e+01
9.654690742492675781e+00 3.052282333374023438e+00 7.902585864067077637e-01 1.600000000000000000e+01
9.968655586242675781e+00 3.117938041687011719e+00 8.128591775894165039e-01 9.000000000000000000e+00
9.999834060668945312e+00 -9.289733767509460449e-01 7.843965291976928711e-01 1.900000000000000000e+01
9.889698982238769531e+00 -9.493556022644042969e-01 7.767688035964965820e-01 1.300000000000000000e+01
9.856961250305175781e+00 -9.767419695854187012e-01 7.746499776840209961e-01 1.100000000000000000e+01
9.375612258911132812e+00 -9.581075310707092285e-01 7.406077980995178223e-01 3.400000000000000000e+01
9.207952499389648438e+00 -9.695307612419128418e-01 7.288837432861328125e-01 2.700000000000000000e+01
9.083948135375976562e+00 -9.846634268760681152e-01 7.202672362327575684e-01 2.400000000000000000e+01
8.594125747680664062e+00 -9.582626223564147949e-01 6.855893731117248535e-01 7.400000000000000000e+01
8.573307037353515625e+00 -9.825804233551025391e-01 6.843180656433105469e-01 9.400000000000000000e+01
8.575205802917480469e+00 -1.009461283683776855e+00 6.846712231636047363e-01 1.110000000000000000e+02
8.582962036132812500e+00 -1.037081003189086914e+00 6.854481101036071777e-01 1.150000000000000000e+02
8.560931205749511719e+00 -1.061077356338500977e+00 6.841062307357788086e-01 5.950000000000000000e+02
8.613050460815429688e+00 -1.094376921653747559e+00 6.880612969398498535e-01 3.800000000000000000e+01
8.597782135009765625e+00 -1.119251251220703125e+00 6.872137784957885742e-01 3.900000000000000000e+01
8.759430885314941406e+00 -1.167631387710571289e+00 6.990085244178771973e-01 9.000000000000000000e+00
7.259444713592529297e+00 -9.903879165649414062e-01 5.920792222023010254e-01 1.300000000000000000e+01
7.297865390777587891e+00 -1.018444538116455078e+00 5.950455665588378906e-01 2.200000000000000000e+01
7.247306346893310547e+00 -1.034067153930664062e+00 5.916554927825927734e-01 2.400000000000000000e+01
7.101962089538574219e+00 -1.035574078559875488e+00 5.814852118492126465e-01 1.600000000000000000e+01
6.927079200744628906e+00 -1.031791090965270996e+00 5.691961050033569336e-01 1.000000000000000000e+01
6.975162029266357422e+00 -1.060836195945739746e+00 5.728687047958374023e-01 1.700000000000000000e+01
6.735306262969970703e+00 -1.045514225959777832e+00 5.559182167053222656e-01 2.400000000000000000e+01
6.655219078063964844e+00 -1.054004192352294922e+00 5.504093170166015625e-01 2.400000000000000000e+01
6.485532283782958984e+00 -1.047541022300720215e+00 5.384733676910400391e-01 1.400000000000000000e+01
6.454729080200195312e+00 -1.062895894050598145e+00 5.364958047866821289e-01 1.900000000000000000e+01
6.305842876434326172e+00 -1.058263421058654785e+00 5.260429978370666504e-01 1.900000000000000000e+01
6.230789661407470703e+00 -1.065334081649780273e+00 5.208872556686401367e-01 2.400000000000000000e+01
6.263852596282958984e+00 -1.090775728225708008e+00 5.235004425048828125e-01 5.000000000000000000e+00
6.066985607147216797e+00 -1.075686693191528320e+00 5.095869302749633789e-01 1.800000000000000000e+01
6.051877021789550781e+00 -1.092169284820556641e+00 5.087394118309020996e-01 6.200000000000000000e+01
5.889559268951416016e+00 -1.081548333168029785e+00 4.972978234291076660e-01 2.300000000000000000e+01
5.842088699340820312e+00 -1.091370344161987305e+00 4.941196143627166748e-01 2.000000000000000000e+01
5.755414962768554688e+00 -1.093465209007263184e+00 4.881163239479064941e-01 1.100000000000000000e+01
5.702083587646484375e+00 -1.101470112800598145e+00 4.845143556594848633e-01 2.700000000000000000e+01
5.641906261444091797e+00 -1.107813000679016113e+00 4.804179668426513672e-01 6.200000000000000000e+01
5.524028778076171875e+00 -1.102282166481018066e+00 4.721546173095703125e-01 2.400000000000000000e+01
5.380821228027343750e+00 -1.090886235237121582e+00 4.620549678802490234e-01 2.000000000000000000e+01
5.391127109527587891e+00 -1.110205650329589844e+00 4.630437493324279785e-01 1.500000000000000000e+01
5.368168354034423828e+00 -1.122656822204589844e+00 4.616312086582183838e-01 2.100000000000000000e+01
5.192965984344482422e+00 -1.102661013603210449e+00 4.492008388042449951e-01 1.700000000000000000e+01
5.216861724853515625e+00 -1.124471902847290039e+00 4.511784017086029053e-01 2.100000000000000000e+01
5.079885482788085938e+00 -1.111271262168884277e+00 4.415025115013122559e-01 2.700000000000000000e+01
5.039447784423828125e+00 -1.118637919425964355e+00 4.388186931610107422e-01 2.200000000000000000e+01
4.979549884796142578e+00 -1.121384739875793457e+00 4.347223043441772461e-01 2.400000000000000000e+01
4.928435325622558594e+00 -1.125773549079895020e+00 4.312615990638732910e-01 3.500000000000000000e+01
4.837498664855957031e+00 -1.120630979537963867e+00 4.249051809310913086e-01 2.800000000000000000e+01
4.790338993072509766e+00 -1.125203967094421387e+00 4.217269420623779297e-01 3.200000000000000000e+01
4.734464168548583984e+00 -1.127418994903564453e+00 4.179131090641021729e-01 4.500000000000000000e+01
4.679590702056884766e+00 -1.129535913467407227e+00 4.141698777675628662e-01 4.000000000000000000e+01
4.615060329437255859e+00 -1.128956794738769531e+00 4.097203612327575684e-01 5.700000000000000000e+01
4.598020076751708984e+00 -1.139750838279724121e+00 4.087315797805786133e-01 6.900000000000000000e+01
4.550965309143066406e+00 -1.142920017242431641e+00 4.055533707141876221e-01 5.900000000000000000e+01
4.465266704559326172e+00 -1.135975360870361328e+00 3.995500802993774414e-01 6.700000000000000000e+01
4.428917884826660156e+00 -1.141207814216613770e+00 3.971487581729888916e-01 6.900000000000000000e+01
4.343354701995849609e+00 -1.133384943008422852e+00 3.911454677581787109e-01 9.700000000000000000e+01
4.301280498504638672e+00 -1.136513352394104004e+00 3.883203864097595215e-01 1.280000000000000000e+02
4.268864631652832031e+00 -1.141971826553344727e+00 3.862015902996063232e-01 1.760000000000000000e+02
4.241270065307617188e+00 -1.148545622825622559e+00 3.844358921051025391e-01 1.530000000000000000e+02
4.171346187591552734e+00 -1.143360257148742676e+00 3.795626461505889893e-01 5.400000000000000000e+01
4.138021469116210938e+00 -1.147887706756591797e+00 3.773732185363769531e-01 1.270000000000000000e+02
4.063411235809326172e+00 -1.140630841255187988e+00 3.721468150615692139e-01 2.000000000000000000e+01
4.077164649963378906e+00 -1.157996773719787598e+00 3.734180927276611328e-01 2.400000000000000000e+01
3.935536861419677734e+00 -1.130836844444274902e+00 3.632478117942810059e-01 3.300000000000000000e+01
3.977069139480590820e+00 -1.155989289283752441e+00 3.665672838687896729e-01 1.700000000000000000e+01
3.966804742813110352e+00 -1.166216135025024414e+00 3.660728931427001953e-01 1.620000000000000000e+02
3.962251901626586914e+00 -1.178096413612365723e+00 3.660022616386413574e-01 2.010000000000000000e+02
3.949066400527954102e+00 -1.187375068664550781e+00 3.652959764003753662e-01 2.000000000000000000e+02
3.909138441085815430e+00 -1.188460826873779297e+00 3.626121580600738525e-01 1.250000000000000000e+02
3.799636602401733398e+00 -1.167920947074890137e+00 3.547725677490234375e-01 8.200000000000000000e+01
3.755074501037597656e+00 -1.166846275329589844e+00 3.517356216907501221e-01 2.030000000000000000e+02
3.712458372116088867e+00 -1.166106939315795898e+00 3.488399088382720947e-01 1.760000000000000000e+02
3.693651199340820312e+00 -1.172662258148193359e+00 3.477098643779754639e-01 1.820000000000000000e+02
3.667240381240844727e+00 -1.176675558090209961e+00 3.460148274898529053e-01 1.880000000000000000e+02
3.641788959503173828e+00 -1.180845499038696289e+00 3.443903923034667969e-01 1.880000000000000000e+02
3.601179599761962891e+00 -1.179901719093322754e+00 3.416359424591064453e-01 1.740000000000000000e+02
3.568186521530151367e+00 -1.181227564811706543e+00 3.394465148448944092e-01 1.670000000000000000e+02
3.504001140594482422e+00 -1.171922683715820312e+00 3.349263966083526611e-01 1.850000000000000000e+02
3.476763486862182617e+00 -1.174686074256896973e+00 3.331606984138488770e-01 1.540000000000000000e+02
3.475975275039672852e+00 -1.186313509941101074e+00 3.333725929260253906e-01 1.180000000000000000e+02
3.417622089385986328e+00 -1.178119540214538574e+00 3.292762339115142822e-01 1.130000000000000000e+02
3.447905540466308594e+00 -1.200404763221740723e+00 3.318187892436981201e-01 1.900000000000000000e+02
3.377392292022705078e+00 -1.187488675117492676e+00 3.268042802810668945e-01 2.410000000000000000e+02
3.401933908462524414e+00 -1.207856059074401855e+00 3.289231061935424805e-01 3.480000000000000000e+02
3.405724287033081055e+00 -1.220980167388916016e+00 3.294880986213684082e-01 3.580000000000000000e+02
3.406652212142944336e+00 -1.233120322227478027e+00 3.298412561416625977e-01 3.350000000000000000e+02
3.405663728713989258e+00 -1.244593024253845215e+00 3.300531208515167236e-01 3.830000000000000000e+02
3.408380508422851562e+00 -1.257452130317687988e+00 3.305475115776062012e-01 4.050000000000000000e+02
3.393289089202880859e+00 -1.263725996017456055e+00 3.296999931335449219e-01 3.490000000000000000e+02
3.383793592453002930e+00 -1.272024750709533691e+00 3.292762339115142822e-01 2.740000000000000000e+02
3.372414112091064453e+00 -1.279569506645202637e+00 3.287112116813659668e-01 2.790000000000000000e+02
3.428092002868652344e+00 -1.312737345695495605e+00 3.332313299179077148e-01 5.770000000000000000e+02
3.317045927047729492e+00 -1.281901955604553223e+00 3.251092433929443359e-01 1.190000000000000000e+02
3.377222537994384766e+00 -1.317077159881591797e+00 3.299824893474578857e-01 3.700000000000000000e+01
3.293338060379028320e+00 -1.296021819114685059e+00 3.239085674285888672e-01 7.200000000000000000e+01
3.313451290130615234e+00 -1.315689682960510254e+00 3.257448673248291016e-01 6.000000000000000000e+01
3.389032840728759766e+00 -1.357748627662658691e+00 3.318187892436981201e-01 2.200000000000000000e+01
9.613586425781250000e+00 -3.885443210601806641e+00 8.074915409088134766e-01 2.900000000000000000e+01
9.527726173400878906e+00 -3.884790897369384766e+00 8.018413782119750977e-01 1.300000000000000000e+01
9.525911331176757812e+00 -3.918177127838134766e+00 8.026182651519775391e-01 1.100000000000000000e+01
9.542407035827636719e+00 -3.959233760833740234e+00 8.048077225685119629e-01 8.000000000000000000e+00
9.553219795227050781e+00 -3.998117923736572266e+00 8.065733909606933594e-01 1.800000000000000000e+01
9.513339042663574219e+00 -4.015770912170410156e+00 8.044545650482177734e-01 1.900000000000000000e+01
9.512906074523925781e+00 -4.050017833709716797e+00 8.053727149963378906e-01 8.000000000000000000e+00
9.510518074035644531e+00 -4.083512783050537109e+00 8.061496615409851074e-01 9.000000000000000000e+00
9.497030258178710938e+00 -4.112275123596191406e+00 8.060790300369262695e-01 1.200000000000000000e+01
9.528248786926269531e+00 -4.160551548004150391e+00 8.094691038131713867e-01 1.400000000000000000e+01
9.515439033508300781e+00 -4.189764499664306641e+00 8.094691038131713867e-01 2.400000000000000000e+01
9.509834289550781250e+00 -4.222175598144531250e+00 8.100340962409973145e-01 1.700000000000000000e+01
9.579687118530273438e+00 -4.288418769836425781e+00 8.164612054824829102e-01 1.200000000000000000e+01
9.557393074035644531e+00 -4.313685417175292969e+00 8.157548904418945312e-01 1.900000000000000000e+01
9.542298316955566406e+00 -4.342160224914550781e+00 8.156136274337768555e-01 1.600000000000000000e+01
9.560664176940917969e+00 -4.385972023010253906e+00 8.180856108665466309e-01 1.200000000000000000e+01
9.565271377563476562e+00 -4.423656940460205078e+00 8.194981217384338379e-01 1.200000000000000000e+01
9.573352813720703125e+00 -4.463097572326660156e+00 8.211931586265563965e-01 8.000000000000000000e+00
9.605657577514648438e+00 -4.514083385467529297e+00 8.247951865196228027e-01 1.500000000000000000e+01
9.613398551940917969e+00 -4.553780078887939453e+00 8.264902234077453613e-01 2.100000000000000000e+01
9.630888938903808594e+00 -4.598294258117675781e+00 8.289621472358703613e-01 2.300000000000000000e+01
9.667970657348632812e+00 -4.652473926544189453e+00 8.329879045486450195e-01 1.300000000000000000e+01
8.182952880859375000e+00 -3.999894380569458008e+00 7.182190418243408203e-01 2.000000000000000000e+01
9.679326057434082031e+00 -4.842175006866455078e+00 8.396268486976623535e-01 1.500000000000000000e+01
9.681348800659179688e+00 -4.880378723144531250e+00 8.409687280654907227e-01 2.200000000000000000e+01
9.662773132324218750e+00 -4.908250808715820312e+00 8.406862616539001465e-01 2.900000000000000000e+01
9.638789176940917969e+00 -4.933328151702880859e+00 8.399799466133117676e-01 2.000000000000000000e+01
9.620062828063964844e+00 -4.961047649383544922e+00 8.396974802017211914e-01 2.000000000000000000e+01
9.595945358276367188e+00 -4.985939025878906250e+00 8.389911651611328125e-01 1.900000000000000000e+01
9.598278045654296875e+00 -5.024608135223388672e+00 8.404037356376647949e-01 2.100000000000000000e+01
9.655303955078125000e+00 -5.206400871276855469e+00 8.500090241432189941e-01 2.600000000000000000e+01
9.652433395385742188e+00 -5.243140220642089844e+00 8.510683774948120117e-01 5.000000000000000000e+01
2.220898151397705078e+00 -1.215357661247253418e+00 2.525753080844879150e-01 3.800000000000000000e+01
2.246861457824707031e+00 -1.238536000251770020e+00 2.549766302108764648e-01 5.000000000000000000e+01
2.229097127914428711e+00 -1.237676858901977539e+00 2.538466155529022217e-01 5.000000000000000000e+01
2.223548173904418945e+00 -1.243536114692687988e+00 2.537053525447845459e-01 5.000000000000000000e+01
2.186695575714111328e+00 -1.231750845909118652e+00 2.510215342044830322e-01 1.030000000000000000e+02
2.190714836120605469e+00 -1.242883205413818359e+00 2.516571581363677979e-01 1.180000000000000000e+02
2.194686651229858398e+00 -1.254051923751831055e+00 2.522928118705749512e-01 1.150000000000000000e+02
2.171807765960693359e+00 -1.249834537506103516e+00 2.507390081882476807e-01 1.680000000000000000e+02
2.178319931030273438e+00 -1.262493252754211426e+00 2.515865564346313477e-01 1.640000000000000000e+02
2.178744077682495117e+00 -1.271684169769287109e+00 2.519396841526031494e-01 1.960000000000000000e+02
2.179132223129272461e+00 -1.280889630317687988e+00 2.522928118705749512e-01 2.120000000000000000e+02
2.181201219558715820e+00 -1.291125416755676270e+00 2.527872025966644287e-01 2.220000000000000000e+02
2.176373004913330078e+00 -1.297300577163696289e+00 2.527165710926055908e-01 2.050000000000000000e+02
2.169816732406616211e+00 -1.302431464195251465e+00 2.525047063827514648e-01 1.710000000000000000e+02
2.166664361953735352e+00 -1.309598207473754883e+00 2.525753080844879150e-01 1.990000000000000000e+02
2.162636518478393555e+00 -1.316239237785339355e+00 2.525753080844879150e-01 2.730000000000000000e+02
2.171345949172973633e+00 -1.330685377120971680e+00 2.536347210407257080e-01 1.520000000000000000e+02
2.166404485702514648e+00 -1.336817026138305664e+00 2.535640895366668701e-01 1.120000000000000000e+02
2.153819799423217773e+00 -1.338193416595458984e+00 2.528578341007232666e-01 1.600000000000000000e+02
2.190297603607177734e+00 -1.370185494422912598e+00 2.562479376792907715e-01 5.090000000000000000e+02
2.153164863586425781e+00 -1.356167793273925781e+00 2.534934580326080322e-01 9.700000000000000000e+01
2.111084461212158203e+00 -1.338730573654174805e+00 2.503152489662170410e-01 5.000000000000000000e+01
2.118738412857055664e+00 -1.352715253829956055e+00 2.513040304183959961e-01 7.000000000000000000e+01
2.149822473526000977e+00 -1.381860017776489258e+00 2.542703747749328613e-01 1.110000000000000000e+02
2.065174341201782227e+00 -1.336428642272949219e+00 2.474901825189590454e-01 5.000000000000000000e+01
1.993363380432128906e+00 -1.298658013343811035e+00 2.417693883180618286e-01 3.800000000000000000e+01
1.962677240371704102e+00 -1.287263154983520508e+00 2.395093291997909546e-01 2.400000000000000000e+01
1.910436034202575684e+00 -1.261403799057006836e+00 2.354129701852798462e-01 2.700000000000000000e+01
1.885787844657897949e+00 -1.253456115722656250e+00 2.336472868919372559e-01 3.400000000000000000e+01
1.884420633316040039e+00 -1.260899662971496582e+00 2.338591665029525757e-01 2.800000000000000000e+01
1.861513972282409668e+00 -1.253859400749206543e+00 2.322347462177276611e-01 3.500000000000000000e+01
1.899766683578491211e+00 -1.288111209869384766e+00 2.358367294073104858e-01 4.400000000000000000e+01
1.897453784942626953e+00 -1.295058131217956543e+00 2.359779775142669678e-01 6.800000000000000000e+01
1.850717067718505859e+00 -1.271504044532775879e+00 2.323053777217864990e-01 8.100000000000000000e+01
1.839423179626464844e+00 -1.272070169448852539e+00 2.316697388887405396e-01 1.080000000000000000e+02
1.825687289237976074e+00 -1.270869493484497070e+00 2.308222055435180664e-01 1.320000000000000000e+02
1.817694783210754395e+00 -1.273602962493896484e+00 2.304690778255462646e-01 1.010000000000000000e+02
1.802365899085998535e+00 -1.271125793457031250e+00 2.294802963733673096e-01 1.040000000000000000e+02
1.789509892463684082e+00 -1.270298600196838379e+00 2.287033945322036743e-01 1.370000000000000000e+02
1.769370794296264648e+00 -1.264186143875122070e+00 2.272908538579940796e-01 1.310000000000000000e+02
1.773582935333251953e+00 -1.275431752204895020e+00 2.279971241950988770e-01 1.480000000000000000e+02
1.747843027114868164e+00 -1.265077352523803711e+00 2.260902076959609985e-01 1.250000000000000000e+02
1.727021336555480957e+00 -1.258100867271423340e+00 2.246070355176925659e-01 1.550000000000000000e+02
1.725566864013671875e+00 -1.265162587165832520e+00 2.248189151287078857e-01 1.410000000000000000e+02
1.708834409713745117e+00 -1.260975122451782227e+00 2.236888855695724487e-01 1.320000000000000000e+02
1.692144036293029785e+00 -1.256697058677673340e+00 2.225588560104370117e-01 1.690000000000000000e+02
1.691476702690124512e+00 -1.264271020889282227e+00 2.228413671255111694e-01 1.540000000000000000e+02
1.680415272712707520e+00 -1.264058351516723633e+00 2.222057133913040161e-01 1.490000000000000000e+02
1.669371128082275391e+00 -1.263789653778076172e+00 2.215700745582580566e-01 1.710000000000000000e+02
1.654376983642578125e+00 -1.260442852973937988e+00 2.205812931060791016e-01 1.800000000000000000e+02
1.648918986320495605e+00 -1.264298677444458008e+00 2.204400449991226196e-01 1.740000000000000000e+02
1.634765267372131348e+00 -1.261430382728576660e+00 2.195218950510025024e-01 1.920000000000000000e+02
1.623796463012695312e+00 -1.260934233665466309e+00 2.188862562179565430e-01 2.020000000000000000e+02
1.619920372962951660e+00 -1.265910029411315918e+00 2.188862562179565430e-01 1.770000000000000000e+02
1.603482723236083984e+00 -1.261008977890014648e+00 2.177562117576599121e-01 2.140000000000000000e+02
1.597259759902954102e+00 -1.264065623283386230e+00 2.175443321466445923e-01 2.070000000000000000e+02
1.590252876281738281e+00 -1.266474604606628418e+00 2.172618359327316284e-01 2.330000000000000000e+02
1.585581421852111816e+00 -1.270723700523376465e+00 2.171912044286727905e-01 2.360000000000000000e+02
1.572357296943664551e+00 -1.268068552017211914e+00 2.163436710834503174e-01 2.360000000000000000e+02
1.562262892723083496e+00 -1.267858386039733887e+00 2.157786637544631958e-01 2.800000000000000000e+02
1.553729891777038574e+00 -1.268860101699829102e+00 2.153549045324325562e-01 2.770000000000000000e+02
3.657423734664916992e+00 2.364023685455322266e+00 3.550269007682800293e-01 1.050000000000000000e+02
3.662979602813720703e+00 2.351713657379150391e+00 3.548978269100189209e-01 1.180000000000000000e+02
3.676908969879150391e+00 2.344756364822387695e+00 3.554140925407409668e-01 1.100000000000000000e+02
3.688300848007202148e+00 2.336133956909179688e+00 3.557367622852325439e-01 9.700000000000000000e+01
3.693761110305786133e+00 2.323745012283325195e+00 3.556076884269714355e-01 9.100000000000000000e+01
3.704258203506469727e+00 2.314516544342041016e+00 3.558658063411712646e-01 9.500000000000000000e+01
3.713885545730590820e+00 2.304719448089599609e+00 3.560594022274017334e-01 1.190000000000000000e+02
3.710743904113769531e+00 2.287032604217529297e+00 3.552850186824798584e-01 8.500000000000000000e+01
3.731361865997314453e+00 2.283971548080444336e+00 3.563175499439239502e-01 1.140000000000000000e+02
3.732382059097290039e+00 2.268885135650634766e+00 3.558658063411712646e-01 1.010000000000000000e+02
3.744451522827148438e+00 2.260517597198486328e+00 3.562530279159545898e-01 1.190000000000000000e+02
3.764208316802978516e+00 2.256714582443237305e+00 3.572210073471069336e-01 9.500000000000000000e+01
3.777974128723144531e+00 2.249238729476928711e+00 3.577372431755065918e-01 9.400000000000000000e+01
3.788293361663818359e+00 2.239668369293212891e+00 3.579953908920288086e-01 1.020000000000000000e+02
3.790843486785888672e+00 2.225509881973266602e+00 3.576727211475372314e-01 7.600000000000000000e+01
3.806275129318237305e+00 2.218894004821777344e+00 3.583180606365203857e-01 1.230000000000000000e+02
3.825156688690185547e+00 2.214203834533691406e+00 3.592214882373809814e-01 8.200000000000000000e+01
3.809435606002807617e+00 2.189531326293945312e+00 3.575436472892761230e-01 7.700000000000000000e+01
3.845604896545410156e+00 2.194647550582885742e+00 3.597377538681030273e-01 9.500000000000000000e+01
3.841900587081909180e+00 2.176936864852905273e+00 3.589633703231811523e-01 6.500000000000000000e+01
3.868566274642944336e+00 2.176391363143920898e+00 3.604476153850555420e-01 1.060000000000000000e+02
3.857799530029296875e+00 2.154782056808471680e+00 3.591569662094116211e-01 6.700000000000000000e+01
3.860028266906738281e+00 2.140516996383666992e+00 3.588342964649200439e-01 6.900000000000000000e+01
3.880565166473388672e+00 2.136363267898559570e+00 3.598668277263641357e-01 7.200000000000000000e+01
3.894982576370239258e+00 2.128754138946533203e+00 3.604476153850555420e-01 9.500000000000000000e+01
3.915530204772949219e+00 2.124407291412353516e+00 3.614801168441772461e-01 8.800000000000000000e+01
3.887762308120727539e+00 2.093933582305908203e+00 3.589633703231811523e-01 9.900000000000000000e+01
3.911769866943359375e+00 2.091404199600219727e+00 3.602540194988250732e-01 8.600000000000000000e+01
3.942850589752197266e+00 2.092489004135131836e+00 3.620609343051910400e-01 9.800000000000000000e+01
3.928943634033203125e+00 2.069687604904174805e+00 3.605766892433166504e-01 7.600000000000000000e+01
3.945887565612792969e+00 2.063171625137329102e+00 3.613510727882385254e-01 8.900000000000000000e+01
3.951312780380249023e+00 2.050596475601196289e+00 3.612865209579467773e-01 9.100000000000000000e+01
3.968231916427612305e+00 2.043946504592895508e+00 3.620609343051910400e-01 6.200000000000000000e+01
3.982481241226196289e+00 2.035849809646606445e+00 3.626417219638824463e-01 7.900000000000000000e+01
3.975358724594116211e+00 2.016851186752319336e+00 3.616737127304077148e-01 9.400000000000000000e+01
3.994898080825805664e+00 2.011375427246093750e+00 3.626417219638824463e-01 7.300000000000000000e+01
4.016226768493652344e+00 2.006690502166748047e+00 3.637387752532958984e-01 8.800000000000000000e+01
4.023258209228515625e+00 1.994802594184875488e+00 3.638032972812652588e-01 7.100000000000000000e+01
4.026672840118408203e+00 1.981128692626953125e+00 3.636097013950347900e-01 8.800000000000000000e+01
4.011208534240722656e+00 1.958261132240295410e+00 3.620609343051910400e-01 6.000000000000000000e+01
4.044141769409179688e+00 1.958993792533874512e+00 3.639968931674957275e-01 7.800000000000000000e+01
4.044736385345458984e+00 1.943984270095825195e+00 3.636097013950347900e-01 6.400000000000000000e+01
4.044375896453857422e+00 1.928560137748718262e+00 3.631579577922821045e-01 4.700000000000000000e+01
4.066511154174804688e+00 1.923822879791259766e+00 3.643195629119873047e-01 7.300000000000000000e+01
4.068780899047851562e+00 1.909642338752746582e+00 3.640614151954650879e-01 7.200000000000000000e+01
4.080953121185302734e+00 1.900098323822021484e+00 3.645131587982177734e-01 6.300000000000000000e+01
4.103071689605712891e+00 1.895099163055419922e+00 3.656747341156005859e-01 5.100000000000000000e+01
4.112495422363281250e+00 1.884164452552795410e+00 3.659328520298004150e-01 5.600000000000000000e+01
4.122799396514892578e+00 1.873602390289306641e+00 3.662555217742919922e-01 4.900000000000000000e+01
4.129437923431396484e+00 1.861355066299438477e+00 3.663200438022613525e-01 6.200000000000000000e+01
4.136040210723876953e+00 1.849084496498107910e+00 3.663845956325531006e-01 6.300000000000000000e+01
4.143517971038818359e+00 1.837195396423339844e+00 3.665136396884918213e-01 5.700000000000000000e+01
4.150961875915527344e+00 1.825277805328369141e+00 3.666427135467529297e-01 5.800000000000000000e+01
4.173008441925048828e+00 1.819712281227111816e+00 3.678042888641357422e-01 4.800000000000000000e+01
4.175823688507080078e+00 1.805713176727294922e+00 3.676106929779052734e-01 4.300000000000000000e+01
4.198770523071289062e+00 1.800363540649414062e+00 3.688368201255798340e-01 4.600000000000000000e+01
4.212539672851562500e+00 1.790986537933349609e+00 3.694176077842712402e-01 5.400000000000000000e+01
4.220773696899414062e+00 1.779216766357421875e+00 3.696112036705017090e-01 6.500000000000000000e+01
4.225291252136230469e+00 1.765874505043029785e+00 3.695466816425323486e-01 6.600000000000000000e+01
4.238986968994140625e+00 1.756340026855468750e+00 3.701274693012237549e-01 5.900000000000000000e+01
4.232354640960693359e+00 1.738399147987365723e+00 3.692885339260101318e-01 5.500000000000000000e+01
4.260775089263916016e+00 1.734811663627624512e+00 3.709018528461456299e-01 7.800000000000000000e+01
4.252195835113525391e+00 1.716130971908569336e+00 3.699338734149932861e-01 5.700000000000000000e+01
4.265779972076416016e+00 1.706412196159362793e+00 3.705146610736846924e-01 5.300000000000000000e+01
4.269139766693115234e+00 1.692581534385681152e+00 3.703855872154235840e-01 5.900000000000000000e+01
4.265953063964843750e+00 1.676192402839660645e+00 3.698047995567321777e-01 7.600000000000000000e+01
4.280375003814697266e+00 1.666716694831848145e+00 3.704501092433929443e-01 6.800000000000000000e+01
4.296640872955322266e+00 1.657886505126953125e+00 3.712245225906372070e-01 5.600000000000000000e+01
4.299842357635498047e+00 1.643984198570251465e+00 3.710954487323760986e-01 6.400000000000000000e+01
4.316064834594726562e+00 1.635025739669799805e+00 3.718698322772979736e-01 5.700000000000000000e+01
4.319191932678222656e+00 1.621075391769409180e+00 3.717407584190368652e-01 6.100000000000000000e+01
4.320403575897216797e+00 1.606426000595092773e+00 3.714826405048370361e-01 7.200000000000000000e+01
4.329057693481445312e+00 1.594542860984802246e+00 3.717407584190368652e-01 7.400000000000000000e+01
4.349866867065429688e+00 1.587066888809204102e+00 3.728378117084503174e-01 5.000000000000000000e+01
8.530261039733886719e+00 3.023120164871215820e+00 6.586514115333557129e-01 1.800000000000000000e+01
8.590343475341796875e+00 3.014777421951293945e+00 6.621361374855041504e-01 1.500000000000000000e+01
8.687217712402343750e+00 3.018867254257202148e+00 6.681376695632934570e-01 1.600000000000000000e+01
8.580370903015136719e+00 2.952272653579711914e+00 6.602001786231994629e-01 1.100000000000000000e+01
8.966295242309570312e+00 3.054302930831909180e+00 6.859485507011413574e-01 1.500000000000000000e+01
9.018177032470703125e+00 3.041127443313598633e+00 6.888525485992431641e-01 9.000000000000000000e+00
9.214888572692871094e+00 3.075998544692993164e+00 7.016299366950988770e-01 1.700000000000000000e+01
9.218596458435058594e+00 3.045835256576538086e+00 7.012427449226379395e-01 7.000000000000000000e+00
9.322749137878417969e+00 3.048549413681030273e+00 7.076959609985351562e-01 1.100000000000000000e+01
9.412761688232421875e+00 3.046045064926147461e+00 7.131811976432800293e-01 9.000000000000000000e+00
9.671008110046386719e+00 3.064176321029663086e+00 7.294433712959289551e-01 1.700000000000000000e+01
9.786062240600585938e+00 3.067619323730468750e+00 7.366064190864562988e-01 1.000000000000000000e+01
9.847850799560546875e+00 3.053835391998291016e+00 7.401556968688964844e-01 1.300000000000000000e+01
9.430635452270507812e+00 -9.284312129020690918e-01 6.862066984176635742e-01 2.200000000000000000e+01
9.452562332153320312e+00 -9.598813652992248535e-01 6.878200173377990723e-01 2.000000000000000000e+01
9.280849456787109375e+00 -9.712112545967102051e-01 6.768495440483093262e-01 3.300000000000000000e+01
8.955371856689453125e+00 -9.649180173873901367e-01 6.558765172958374023e-01 2.200000000000000000e+01
8.818471908569335938e+00 -9.775376915931701660e-01 6.471646428108215332e-01 3.000000000000000000e+01
8.500137329101562500e+00 -9.686392545700073242e-01 6.266433596611022949e-01 9.100000000000000000e+01
8.509018898010253906e+00 -9.961057901382446289e-01 6.274177432060241699e-01 9.600000000000000000e+01
8.551498413085937500e+00 -1.027686238288879395e+00 6.303862333297729492e-01 1.440000000000000000e+02
8.417571067810058594e+00 -1.037791132926940918e+00 6.218680143356323242e-01 3.380000000000000000e+02
8.541071891784667969e+00 -1.079637169837951660e+00 6.301281452178955078e-01 6.800000000000000000e+01
8.637673377990722656e+00 -1.118788003921508789e+00 6.366459131240844727e-01 3.600000000000000000e+01
8.659920692443847656e+00 -1.148695945739746094e+00 6.383237242698669434e-01 2.100000000000000000e+01
7.320438385009765625e+00 -9.938046932220458984e-01 5.511406064033508301e-01 8.000000000000000000e+00
7.376660346984863281e+00 -1.024499416351318359e+00 5.550125241279602051e-01 1.700000000000000000e+01
7.188727855682373047e+00 -1.020875573158264160e+00 5.429449677467346191e-01 5.200000000000000000e+01
7.175686359405517578e+00 -1.041491508483886719e+00 5.422996878623962402e-01 1.700000000000000000e+01
7.046106815338134766e+00 -1.044757485389709473e+00 5.340394973754882812e-01 1.900000000000000000e+01
6.768577098846435547e+00 -1.024819016456604004e+00 5.160995125770568848e-01 1.300000000000000000e+01
6.751594543457031250e+00 -1.043444991111755371e+00 5.151960849761962891e-01 1.500000000000000000e+01
6.662603378295898438e+00 -1.050624012947082520e+00 5.095818042755126953e-01 1.400000000000000000e+01
6.691861629486083984e+00 -1.076291322708129883e+00 5.117113590240478516e-01 1.500000000000000000e+01
6.486654281616210938e+00 -1.063696861267089844e+00 4.984822273254394531e-01 1.300000000000000000e+01
6.452848434448242188e+00 -1.078490614891052246e+00 4.964817166328430176e-01 1.500000000000000000e+01
6.308834552764892578e+00 -1.074316024780273438e+00 4.872536063194274902e-01 1.900000000000000000e+01
6.208169937133789062e+00 -1.076775193214416504e+00 4.808649122714996338e-01 2.600000000000000000e+01
6.134083271026611328e+00 -1.083315014839172363e+00 4.762185811996459961e-01 1.100000000000000000e+01
6.045283317565917969e+00 -1.086760759353637695e+00 4.706042706966400146e-01 6.300000000000000000e+01
5.965354919433593750e+00 -1.091289043426513672e+00 4.655707478523254395e-01 4.200000000000000000e+01
5.927641868591308594e+00 -1.103191852569580078e+00 4.633121192455291748e-01 1.000000000000000000e+01
5.803629398345947266e+00 -1.098534107208251953e+00 4.553746283054351807e-01 2.700000000000000000e+01
5.641485691070556641e+00 -1.085767149925231934e+00 4.449203908443450928e-01 2.400000000000000000e+01
5.562719345092773438e+00 -1.088309645652770996e+00 4.399514198303222656e-01 5.800000000000000000e+01
5.585780143737792969e+00 -1.110627532005310059e+00 4.416937828063964844e-01 3.200000000000000000e+01
5.331943511962890625e+00 -1.077149033546447754e+00 4.251735210418701172e-01 1.200000000000000000e+01
5.342299461364746094e+00 -1.096311807632446289e+00 4.260769784450531006e-01 1.900000000000000000e+01
5.260758399963378906e+00 -1.096401095390319824e+00 4.209143817424774170e-01 1.200000000000000000e+01
5.200745582580566406e+00 -1.100547671318054199e+00 4.171715080738067627e-01 1.600000000000000000e+01
5.174905300140380859e+00 -1.111675381660461426e+00 4.156872630119323730e-01 1.500000000000000000e+01
5.105171203613281250e+00 -1.113084554672241211e+00 4.112990796566009521e-01 3.000000000000000000e+01
5.062758922576904297e+00 -1.120115041732788086e+00 4.087177813053131104e-01 2.000000000000000000e+01
