# .PCD v.7 - Point Cloud Data file format
VERSION .7
FIELDS x y z intensity
SIZE 4 4 4 4
TYPE F F F F
COUNT 1 1 1 1
WIDTH 474
HEIGHT 1
VIEWPOINT 0 0 0 1 0 0 0
POINTS 474
DATA ascii
3.712207555770874023e+00 -2.075230032205581665e-01 2.463919222354888916e-01 2.250000000000000000e+02
3.652719020843505859e+00 -2.154433727264404297e-01 2.436537891626358032e-01 2.300000000000000000e+02
3.631103754043579102e+00 -2.253502905368804932e-01 2.426791936159133911e-01 2.430000000000000000e+02
3.609462261199951172e+00 -2.351266145706176758e-01 2.417046129703521729e-01 2.430000000000000000e+02
3.587795019149780273e+00 -2.447722852230072021e-01 2.407300174236297607e-01 2.430000000000000000e+02
3.563113689422607422e+00 -2.540742158889770508e-01 2.396162003278732300e-01 2.310000000000000000e+02
3.536417007446289062e+00 -2.630788981914520264e-01 2.384095638990402222e-01 2.130000000000000000e+02
3.514678478240966797e+00 -2.723077833652496338e-01 2.374349683523178101e-01 2.110000000000000000e+02
3.485946893692016602e+00 -2.808445692062377930e-01 2.361355125904083252e-01 2.430000000000000000e+02
3.414391994476318359e+00 -2.856288850307464600e-01 2.328404784202575684e-01 2.130000000000000000e+02
3.401557207107543945e+00 -2.950673997402191162e-01 2.322835624217987061e-01 1.930000000000000000e+02
3.382727384567260742e+00 -3.038938343524932861e-01 2.314482033252716064e-01 2.100000000000000000e+02
3.381779193878173828e+00 -3.142704665660858154e-01 2.314482033252716064e-01 1.760000000000000000e+02
3.354945898056030273e+00 -3.221628069877624512e-01 2.302415668964385986e-01 1.950000000000000000e+02
3.326108217239379883e+00 -3.296965062618255615e-01 2.289421111345291138e-01 1.650000000000000000e+02
3.299243688583374023e+00 -3.372593820095062256e-01 2.277354747056961060e-01 1.580000000000000000e+02
3.271370649337768555e+00 -3.445559740066528320e-01 2.264824211597442627e-01 1.420000000000000000e+02
3.249443054199218750e+00 -3.523305058479309082e-01 2.255078405141830444e-01 1.270000000000000000e+02
3.218563556671142578e+00 -3.589776754379272461e-01 2.241155654191970825e-01 1.590000000000000000e+02
3.176757574081420898e+00 -3.641877770423889160e-01 2.222127914428710938e-01 1.360000000000000000e+02
3.148839235305786133e+00 -3.707795143127441406e-01 2.209597527980804443e-01 1.320000000000000000e+02
3.125869274139404297e+00 -3.778024613857269287e-01 2.199387401342391968e-01 1.470000000000000000e+02
3.119738817214965820e+00 -3.867764472961425781e-01 2.197066992521286011e-01 1.180000000000000000e+02
3.094754457473754883e+00 -3.933244347572326660e-01 2.185928821563720703e-01 1.660000000000000000e+02
3.068768978118896484e+00 -3.995938301086425781e-01 2.174326628446578979e-01 1.300000000000000000e+02
3.057626962661743164e+00 -4.076870977878570557e-01 2.169685661792755127e-01 1.330000000000000000e+02
3.066259384155273438e+00 -4.184159338474273682e-01 2.174326628446578979e-01 1.440000000000000000e+02
3.042206525802612305e+00 -4.246461093425750732e-01 2.163652479648590088e-01 1.240000000000000000e+02
3.034955978393554688e+00 -4.331309795379638672e-01 2.160867899656295776e-01 1.350000000000000000e+02
2.964419841766357422e+00 -4.323522448539733887e-01 2.128381580114364624e-01 1.410000000000000000e+02
2.954187154769897461e+00 -4.401206374168395996e-01 2.124204784631729126e-01 1.270000000000000000e+02
2.928133726119995117e+00 -4.454275369644165039e-01 2.112602442502975464e-01 1.320000000000000000e+02
2.913921117782592773e+00 -4.524171650409698486e-01 2.106569260358810425e-01 1.180000000000000000e+02
2.900679826736450195e+00 -4.594800472259521484e-01 2.101000249385833740e-01 1.400000000000000000e+02
2.855865955352783203e+00 -4.613697528839111328e-01 2.080580145120620728e-01 1.300000000000000000e+02
2.847537517547607422e+00 -4.689932763576507568e-01 2.077331542968750000e-01 1.230000000000000000e+02
2.840174436569213867e+00 -4.767353534698486328e-01 2.074546962976455688e-01 1.230000000000000000e+02
2.805220842361450195e+00 -4.797235429286956787e-01 2.058767974376678467e-01 1.190000000000000000e+02
2.813576936721801758e+00 -4.900410473346710205e-01 2.063408792018890381e-01 1.240000000000000000e+02
2.795339345932006836e+00 -4.957064688205718994e-01 2.055519372224807739e-01 1.130000000000000000e+02
2.764313936233520508e+00 -4.989586472511291504e-01 2.041596621274948120e-01 1.470000000000000000e+02
2.767682552337646484e+00 -5.083391070365905762e-01 2.043917030096054077e-01 1.080000000000000000e+02
2.758254528045654297e+00 -5.153605341911315918e-01 2.040204256772994995e-01 1.120000000000000000e+02
2.730163335800170898e+00 -5.187869071960449219e-01 2.027673870325088501e-01 1.310000000000000000e+02
2.741309165954589844e+00 -5.296231508255004883e-01 2.033707052469253540e-01 1.100000000000000000e+02
2.674977540969848633e+00 -5.253297686576843262e-01 2.003077119588851929e-01 1.340000000000000000e+02
2.690986394882202148e+00 -5.370520949363708496e-01 2.011430710554122925e-01 1.140000000000000000e+02
2.638417482376098633e+00 -5.349858999252319336e-01 1.987297981977462769e-01 1.220000000000000000e+02
2.636763811111450195e+00 -5.430779457092285156e-01 1.987297981977462769e-01 1.180000000000000000e+02
2.634107351303100586e+00 -5.509604215621948242e-01 1.986833810806274414e-01 1.280000000000000000e+02
2.616770505905151367e+00 -5.557199120521545410e-01 1.979408413171768188e-01 1.280000000000000000e+02
2.619935750961303711e+00 -5.647976994514465332e-01 1.981728821992874146e-01 1.310000000000000000e+02
2.583059787750244141e+00 -5.651488304138183594e-01 1.965021640062332153e-01 1.260000000000000000e+02
2.560834884643554688e+00 -5.685257315635681152e-01 1.955275684595108032e-01 1.290000000000000000e+02
2.568823814392089844e+00 -5.785738825798034668e-01 1.959916651248931885e-01 1.390000000000000000e+02
2.514448881149291992e+00 -5.744416713714599609e-01 1.934855729341506958e-01 1.310000000000000000e+02
2.486399412155151367e+00 -5.760672688484191895e-01 1.922325193881988525e-01 1.170000000000000000e+02
2.482675552368164062e+00 -5.832359194755554199e-01 1.921397000551223755e-01 1.090000000000000000e+02
2.471156835556030273e+00 -5.885362029075622559e-01 1.916756182909011841e-01 1.100000000000000000e+02
2.456716060638427734e+00 -5.930683016777038574e-01 1.910723000764846802e-01 1.160000000000000000e+02
2.451003789901733398e+00 -5.996532440185546875e-01 1.908866614103317261e-01 1.240000000000000000e+02
2.446243762969970703e+00 -6.064491271972656250e-01 1.907474398612976074e-01 1.240000000000000000e+02
2.438558578491210938e+00 -6.124915480613708496e-01 1.904689818620681763e-01 1.220000000000000000e+02
2.412465572357177734e+00 -6.138138175010681152e-01 1.893087476491928101e-01 1.320000000000000000e+02
2.389289855957031250e+00 -6.157294511795043945e-01 1.882877498865127563e-01 1.370000000000000000e+02
2.394155502319335938e+00 -6.248220801353454590e-01 1.886126101016998291e-01 1.400000000000000000e+02
2.381603717803955078e+00 -6.293576955795288086e-01 1.881021112203598022e-01 1.110000000000000000e+02
2.372906446456909180e+00 -6.348546147346496582e-01 1.877772510051727295e-01 1.150000000000000000e+02
2.353591918945312500e+00 -6.374323368072509766e-01 1.869418919086456299e-01 1.220000000000000000e+02
2.360296010971069336e+00 -6.470263004302978516e-01 1.873595714569091797e-01 1.240000000000000000e+02
2.339048147201538086e+00 -6.489248871803283691e-01 1.864313930273056030e-01 1.430000000000000000e+02
2.318772792816162109e+00 -6.509692072868347168e-01 1.855496168136596680e-01 1.310000000000000000e+02
2.293702363967895508e+00 -6.515308022499084473e-01 1.844357997179031372e-01 1.360000000000000000e+02
2.297453403472900391e+00 -6.602197289466857910e-01 1.847142577171325684e-01 1.440000000000000000e+02
2.287743091583251953e+00 -6.650348901748657227e-01 1.843429803848266602e-01 1.470000000000000000e+02
2.276108264923095703e+00 -6.692333221435546875e-01 1.838788837194442749e-01 1.330000000000000000e+02
2.271171808242797852e+00 -6.753591895103454590e-01 1.837396621704101562e-01 1.300000000000000000e+02
2.247086763381958008e+00 -6.757093071937561035e-01 1.826722472906112671e-01 1.390000000000000000e+02
2.240224361419677734e+00 -6.811474561691284180e-01 1.824402064085006714e-01 1.560000000000000000e+02
2.224756240844726562e+00 -6.839087605476379395e-01 1.817904859781265259e-01 1.450000000000000000e+02
2.208338499069213867e+00 -6.862852573394775391e-01 1.810943484306335449e-01 1.620000000000000000e+02
2.200504541397094727e+00 -6.912612915039062500e-01 1.808158904314041138e-01 1.340000000000000000e+02
2.186948060989379883e+00 -6.943823099136352539e-01 1.802589744329452515e-01 1.420000000000000000e+02
2.180051565170288086e+00 -6.995627284049987793e-01 1.800269335508346558e-01 1.510000000000000000e+02
2.158890485763549805e+00 -7.000864148139953613e-01 1.790987551212310791e-01 1.720000000000000000e+02
2.147239685058593750e+00 -7.035966515541076660e-01 1.786346584558486938e-01 1.440000000000000000e+02
2.139380931854248047e+00 -7.082976698875427246e-01 1.783562153577804565e-01 1.600000000000000000e+02
2.119198083877563477e+00 -7.088386416435241699e-01 1.774744391441345215e-01 1.470000000000000000e+02
2.102817773818969727e+00 -7.105413675308227539e-01 1.767783015966415405e-01 1.790000000000000000e+02
2.095901012420654297e+00 -7.153763175010681152e-01 1.765462607145309448e-01 1.810000000000000000e+02
2.086141109466552734e+00 -7.191990613937377930e-01 1.761749833822250366e-01 1.520000000000000000e+02
2.071660757064819336e+00 -7.213266491889953613e-01 1.755716651678085327e-01 1.760000000000000000e+02
2.058129310607910156e+00 -7.237034440040588379e-01 1.750147491693496704e-01 1.780000000000000000e+02
2.053075313568115234e+00 -7.290117740631103516e-01 1.748755276203155518e-01 1.660000000000000000e+02
2.046127319335937500e+00 -7.336217164993286133e-01 1.746434867382049561e-01 1.690000000000000000e+02
2.037292003631591797e+00 -7.375160455703735352e-01 1.743186116218566895e-01 1.910000000000000000e+02
2.031266689300537109e+00 -7.423915266990661621e-01 1.741329878568649292e-01 1.820000000000000000e+02
2.024293661117553711e+00 -7.468913197517395020e-01 1.739009320735931396e-01 1.920000000000000000e+02
2.007950782775878906e+00 -7.478694915771484375e-01 1.732047945261001587e-01 1.810000000000000000e+02
1.997231364250183105e+00 -7.508631944656372070e-01 1.727871149778366089e-01 1.810000000000000000e+02
1.979040861129760742e+00 -7.509635686874389648e-01 1.719981580972671509e-01 1.950000000000000000e+02
1.972996115684509277e+00 -7.556029558181762695e-01 1.718125343322753906e-01 2.020000000000000000e+02
1.960419058799743652e+00 -7.576919198036193848e-01 1.713020205497741699e-01 2.150000000000000000e+02
1.945986509323120117e+00 -7.589851021766662598e-01 1.706987172365188599e-01 1.950000000000000000e+02
1.939001083374023438e+00 -7.631229758262634277e-01 1.704666614532470703e-01 2.140000000000000000e+02
1.930151700973510742e+00 -7.664878964424133301e-01 1.701418012380599976e-01 2.200000000000000000e+02
1.914808988571166992e+00 -7.672055363655090332e-01 1.694920808076858521e-01 2.210000000000000000e+02
1.912446260452270508e+00 -7.730764746665954590e-01 1.694920808076858521e-01 2.320000000000000000e+02
1.895265579223632812e+00 -7.729060053825378418e-01 1.687495261430740356e-01 2.540000000000000000e+02
1.881799459457397461e+00 -7.741572856903076172e-01 1.681926250457763672e-01 2.390000000000000000e+02
1.879415512084960938e+00 -7.799268960952758789e-01 1.681926250457763672e-01 2.400000000000000000e+02
1.866877555847167969e+00 -7.814472317695617676e-01 1.676821261644363403e-01 2.590000000000000000e+02
1.857108950614929199e+00 -7.840633988380432129e-01 1.673108488321304321e-01 2.620000000000000000e+02
1.854694724082946777e+00 -7.897572517395019531e-01 1.673108488321304321e-01 2.750000000000000000e+02
1.839412569999694824e+00 -7.899262905120849609e-01 1.666611135005950928e-01 2.770000000000000000e+02
1.834230303764343262e+00 -7.943750619888305664e-01 1.665218919515609741e-01 3.190000000000000000e+02
1.823545455932617188e+00 -7.964011430740356445e-01 1.661042124032974243e-01 3.540000000000000000e+02
1.812865495681762695e+00 -7.983691692352294922e-01 1.656865328550338745e-01 3.360000000000000000e+02
1.814972519874572754e+00 -8.059538602828979492e-01 1.659185737371444702e-01 3.840000000000000000e+02
1.807932615280151367e+00 -8.094776868820190430e-01 1.656865328550338745e-01 3.940000000000000000e+02
1.800888299942016602e+00 -8.129659295082092285e-01 1.654544770717620850e-01 4.060000000000000000e+02
1.797476410865783691e+00 -8.180733919143676758e-01 1.654080748558044434e-01 4.450000000000000000e+02
1.790418386459350586e+00 -8.215016126632690430e-01 1.651760339736938477e-01 4.340000000000000000e+02
1.778823018074035645e+00 -8.227977752685546875e-01 1.647119373083114624e-01 5.070000000000000000e+02
1.769047379493713379e+00 -8.248746991157531738e-01 1.643406599760055542e-01 5.180000000000000000e+02
1.761083841323852539e+00 -8.277491331100463867e-01 1.640622168779373169e-01 5.550000000000000000e+02
1.754925012588500977e+00 -8.314377069473266602e-01 1.638765782117843628e-01 5.530000000000000000e+02
1.745154380798339844e+00 -8.333747386932373047e-01 1.635053008794784546e-01 5.700000000000000000e+02
1.742589354515075684e+00 -8.387248516082763672e-01 1.635053008794784546e-01 6.530000000000000000e+02
1.737311601638793945e+00 -8.427593708038330078e-01 1.633660793304443359e-01 6.520000000000000000e+02
1.725743412971496582e+00 -8.436987996101379395e-01 1.629019826650619507e-01 6.270000000000000000e+02
1.723146796226501465e+00 -8.489893078804016113e-01 1.629019826650619507e-01 6.600000000000000000e+02
1.717849850654602051e+00 -8.529393672943115234e-01 1.627627611160278320e-01 7.000000000000000000e+02
1.706291198730468750e+00 -8.537366390228271484e-01 1.622986644506454468e-01 7.040000000000000000e+02
1.695635914802551270e+00 -8.549206256866455078e-01 1.618809849023818970e-01 7.270000000000000000e+02
1.684098839759826660e+00 -8.555949926376342773e-01 1.614168882369995117e-01 7.570000000000000000e+02
1.674352169036865234e+00 -8.571168184280395508e-01 1.610456258058547974e-01 7.480000000000000000e+02
1.669051289558410645e+00 -8.608761429786682129e-01 1.609063893556594849e-01 7.890000000000000000e+02
1.663743019104003906e+00 -8.646110296249389648e-01 1.607671678066253662e-01 7.700000000000000000e+02
1.657542586326599121e+00 -8.678581714630126953e-01 1.605815291404724121e-01 7.840000000000000000e+02
1.653988599777221680e+00 -8.724733591079711914e-01 1.605351269245147705e-01 8.290000000000000000e+02
1.643364906311035156e+00 -8.733253479003906250e-01 1.601174324750900269e-01 8.110000000000000000e+02
1.634512901306152344e+00 -8.750632405281066895e-01 1.597925722599029541e-01 7.980000000000000000e+02
1.629182815551757812e+00 -8.786514401435852051e-01 1.596533507108688354e-01 8.730000000000000000e+02
1.620334982872009277e+00 -8.803080320358276367e-01 1.593284904956817627e-01 8.840000000000000000e+02
1.613245010375976562e+00 -8.828775882720947266e-01 1.590964347124099731e-01 8.870000000000000000e+02
1.607029438018798828e+00 -8.858941197395324707e-01 1.589107960462570190e-01 9.310000000000000000e+02
1.600810527801513672e+00 -8.888808488845825195e-01 1.587251722812652588e-01 9.400000000000000000e+02
1.593716502189636230e+00 -8.913502097129821777e-01 1.584931164979934692e-01 9.450000000000000000e+02
1.585752129554748535e+00 -8.932942748069763184e-01 1.582146733999252319e-01 9.720000000000000000e+02
1.577790975570678711e+00 -8.951978683471679688e-01 1.579362154006958008e-01 9.760000000000000000e+02
1.569833040237426758e+00 -8.970610499382019043e-01 1.576577574014663696e-01 9.710000000000000000e+02
1.565341830253601074e+00 -9.008766412734985352e-01 1.575649380683898926e-01 9.950000000000000000e+02
1.561706304550170898e+00 -9.051739573478698730e-01 1.575185358524322510e-01 1.014000000000000000e+03
1.558921933174133301e+00 -9.099609255790710449e-01 1.575185358524322510e-01 1.035000000000000000e+03
1.557845234870910645e+00 -9.157516360282897949e-01 1.576113551855087280e-01 1.023000000000000000e+03
1.552449464797973633e+00 -9.190003871917724609e-01 1.574721187353134155e-01 1.058000000000000000e+03
1.542758107185363770e+00 -9.196676015853881836e-01 1.571008414030075073e-01 1.006000000000000000e+03
1.545068383216857910e+00 -9.274806380271911621e-01 1.573792994022369385e-01 1.038000000000000000e+03
1.540505766868591309e+00 -9.311831593513488770e-01 1.572864800691604614e-01 1.072000000000000000e+03
1.532521724700927734e+00 -9.327892065048217773e-01 1.570080369710922241e-01 1.099000000000000000e+03
1.526245832443237305e+00 -9.353989362716674805e-01 1.568223983049392700e-01 1.124000000000000000e+03
1.515717625617980957e+00 -9.353563189506530762e-01 1.564047187566757202e-01 1.070000000000000000e+03
1.506052732467651367e+00 -9.357851147651672363e-01 1.560334414243698120e-01 1.085000000000000000e+03
1.498093247413635254e+00 -9.372228980064392090e-01 1.557549834251403809e-01 1.093000000000000000e+03
1.490139245986938477e+00 -9.386206269264221191e-01 1.554765254259109497e-01 1.086000000000000000e+03
1.482190728187561035e+00 -9.399784803390502930e-01 1.551980823278427124e-01 1.076000000000000000e+03
1.478457927703857422e+00 -9.439838528633117676e-01 1.551516652107238770e-01 1.097000000000000000e+03
1.477235555648803711e+00 -9.495953917503356934e-01 1.552444845438003540e-01 1.095000000000000000e+03
1.474315285682678223e+00 -9.541230201721191406e-01 1.552444845438003540e-01 1.082000000000000000e+03
1.475566148757934570e+00 -9.613677859306335449e-01 1.554765254259109497e-01 1.095000000000000000e+03
1.470939159393310547e+00 -9.647946357727050781e-01 1.553837060928344727e-01 1.116000000000000000e+03
1.467972278594970703e+00 -9.693028926849365234e-01 1.553837060928344727e-01 1.123000000000000000e+03
1.467487454414367676e+00 -9.754607081413269043e-01 1.555229425430297852e-01 1.102000000000000000e+03
1.458676099777221680e+00 -9.760701060295104980e-01 1.551980823278427124e-01 1.101000000000000000e+03
1.453189015388488770e+00 -9.788666963577270508e-01 1.550588458776473999e-01 1.099000000000000000e+03
1.447698593139648438e+00 -9.816387891769409180e-01 1.549196243286132812e-01 1.136000000000000000e+03
1.439729571342468262e+00 -9.826972484588623047e-01 1.546411663293838501e-01 1.149000000000000000e+03
1.436707854270935059e+00 -9.871096611022949219e-01 1.546411663293838501e-01 1.114000000000000000e+03
1.430386185646057129e+00 -9.892402887344360352e-01 1.544555276632308960e-01 1.139000000000000000e+03
1.425704717636108398e+00 -9.924827218055725098e-01 1.543627083301544189e-01 1.159000000000000000e+03
1.421016812324523926e+00 -9.957057237625122070e-01 1.542698889970779419e-01 1.146000000000000000e+03
1.417139053344726562e+00 -9.994850158691406250e-01 1.542234867811203003e-01 1.140000000000000000e+03
1.414065957069396973e+00 -1.003828048706054688e+00 1.542234867811203003e-01 1.139000000000000000e+03
1.411792397499084473e+00 -1.008742213249206543e+00 1.542698889970779419e-01 1.182000000000000000e+03
1.407879948616027832e+00 -1.012485623359680176e+00 1.542234867811203003e-01 1.201000000000000000e+03
1.397483944892883301e+00 -1.011529564857482910e+00 1.538058072328567505e-01 1.214000000000000000e+03
1.395988821983337402e+00 -1.016988396644592285e+00 1.538986265659332275e-01 1.161000000000000000e+03
1.388833999633789062e+00 -1.018313527107238770e+00 1.536665707826614380e-01 1.207000000000000000e+03
1.384095668792724609e+00 -1.021383523941040039e+00 1.535737514495849609e-01 1.184000000000000000e+03
1.383361697196960449e+00 -1.027411580085754395e+00 1.537129878997802734e-01 1.222000000000000000e+03
1.379402875900268555e+00 -1.031052827835083008e+00 1.536665707826614380e-01 1.214000000000000000e+03
1.383418202400207520e+00 -1.040683865547180176e+00 1.540842652320861816e-01 1.264000000000000000e+03
1.384997725486755371e+00 -1.048540472984313965e+00 1.543627083301544189e-01 1.278000000000000000e+03
1.381774425506591797e+00 -1.052784681320190430e+00 1.543627083301544189e-01 1.263000000000000000e+03
1.380916237831115723e+00 -1.058842182159423828e+00 1.545019447803497314e-01 1.290000000000000000e+03
1.376079440116882324e+00 -1.061853408813476562e+00 1.544091254472732544e-01 1.294000000000000000e+03
1.374393343925476074e+00 -1.067295432090759277e+00 1.545019447803497314e-01 1.308000000000000000e+03
1.368751049041748047e+00 -1.069661855697631836e+00 1.543627083301544189e-01 1.327000000000000000e+03
1.363107204437255859e+00 -1.072003841400146484e+00 1.542234867811203003e-01 1.311000000000000000e+03
1.359028577804565430e+00 -1.075560808181762695e+00 1.541770696640014648e-01 1.329000000000000000e+03
1.348689317703247070e+00 -1.074125051498413086e+00 1.537593901157379150e-01 1.308000000000000000e+03
1.343828558921813965e+00 -1.077008485794067383e+00 1.536665707826614380e-01 1.323000000000000000e+03
1.342073202133178711e+00 -1.082380294799804688e+00 1.537593901157379150e-01 1.358000000000000000e+03
1.334092140197753906e+00 -1.082716107368469238e+00 1.534809470176696777e-01 1.361000000000000000e+03
1.330764055252075195e+00 -1.086803913116455078e+00 1.534809470176696777e-01 1.359000000000000000e+03
8.538452148437500000e+00 5.524466037750244141e+00 4.822050929069519043e-01 1.800000000000000000e+01
8.729364395141601562e+00 5.610059261322021484e+00 4.905123710632324219e-01 6.000000000000000000e+00
8.863608360290527344e+00 5.657976150512695312e+00 4.960906803607940674e-01 8.000000000000000000e+00
8.998227119445800781e+00 5.705121040344238281e+00 5.016689896583557129e-01 6.000000000000000000e+00
9.029215812683105469e+00 5.686006546020507812e+00 5.023111104965209961e-01 1.900000000000000000e+01
8.989010810852050781e+00 5.622251510620117188e+00 4.995821714401245117e-01 1.300000000000000000e+01
9.352443695068359375e+00 5.770011425018310547e+00 5.151131749153137207e-01 1.100000000000000000e+01
9.502162933349609375e+00 5.822200298309326172e+00 5.213335752487182617e-01 1.500000000000000000e+01
9.974308967590332031e+00 5.985906600952148438e+00 5.409580469131469727e-01 9.000000000000000000e+00
7.674447536468505859e+00 4.447145938873291016e+00 4.299936294555664062e-01 4.000000000000000000e+00
7.659944534301757812e+00 4.376183509826660156e+00 4.280672967433929443e-01 9.000000000000000000e+00
7.536880493164062500e+00 4.275269985198974609e+00 4.217666089534759521e-01 7.000000000000000000e+00
7.617000579833984375e+00 4.289878368377685547e+00 4.248567521572113037e-01 1.000000000000000000e+01
7.589135169982910156e+00 4.243572235107421875e+00 4.229705631732940674e-01 1.700000000000000000e+01
7.540964603424072266e+00 4.186324119567871094e+00 4.201613366603851318e-01 2.700000000000000000e+01
7.593152523040771484e+00 4.184870243072509766e+00 4.219672679901123047e-01 3.400000000000000000e+01
7.618228435516357422e+00 4.168268680572509766e+00 4.225291013717651367e-01 1.100000000000000000e+01
7.595858097076416016e+00 4.125802040100097656e+00 4.209238290786743164e-01 1.700000000000000000e+01
7.626070499420166016e+00 4.111962318420410156e+00 4.217264652252197266e-01 1.200000000000000000e+01
7.607815742492675781e+00 4.072044849395751953e+00 4.203218519687652588e-01 1.200000000000000000e+01
7.662628650665283203e+00 4.071186065673828125e+00 4.222481846809387207e-01 8.000000000000000000e+00
7.649451255798339844e+00 4.034142971038818359e+00 4.210843741893768311e-01 8.000000000000000000e+00
7.597167015075683594e+00 3.976831674575805664e+00 4.181547462940216064e-01 5.000000000000000000e+00
7.643026351928710938e+00 3.971008777618408203e+00 4.196797609329223633e-01 1.900000000000000000e+01
7.654284954071044922e+00 3.947083711624145508e+00 4.196396172046661377e-01 2.300000000000000000e+01
7.646789550781250000e+00 3.913568496704101562e+00 4.187567234039306641e-01 9.000000000000000000e+00
7.679250717163085938e+00 3.900496244430541992e+00 4.196797609329223633e-01 1.100000000000000000e+01
7.710811138153076172e+00 3.886811733245849609e+00 4.205626547336578369e-01 1.000000000000000000e+01
7.777212142944335938e+00 3.890402078628540039e+00 4.230107069015502930e-01 1.600000000000000000e+01
7.781950950622558594e+00 3.862969636917114258e+00 4.226896464824676514e-01 1.200000000000000000e+01
7.823346138000488281e+00 3.853645563125610352e+00 4.240140020847320557e-01 2.000000000000000000e+01
7.831541538238525391e+00 3.827870845794677734e+00 4.238534569740295410e-01 1.900000000000000000e+01
7.828863143920898438e+00 3.796850442886352539e+00 4.232113659381866455e-01 2.600000000000000000e+01
7.847678184509277344e+00 3.776279687881469727e+00 4.235323965549468994e-01 9.000000000000000000e+00
7.843897342681884766e+00 3.744868040084838867e+00 4.228501617908477783e-01 5.000000000000000000e+00
7.861670494079589844e+00 3.723779439926147461e+00 4.231310784816741943e-01 1.900000000000000000e+01
7.859492778778076172e+00 3.693269014358520508e+00 4.225291013717651367e-01 7.000000000000000000e+00
7.877126216888427734e+00 3.672094106674194336e+00 4.228100478649139404e-01 9.000000000000000000e+00
7.861146926879882812e+00 3.635329723358154297e+00 4.216060936450958252e-01 9.000000000000000000e+00
7.899509429931640625e+00 3.623691797256469727e+00 4.228100478649139404e-01 1.400000000000000000e+01
7.884214401245117188e+00 3.587440013885498047e+00 4.216462075710296631e-01 2.200000000000000000e+01
7.948918342590332031e+00 3.587482452392578125e+00 4.240140020847320557e-01 1.500000000000000000e+01
7.968095302581787109e+00 3.566752195358276367e+00 4.243751764297485352e-01 1.400000000000000000e+01
8.003658294677734375e+00 3.553235054016113281e+00 4.254587292671203613e-01 1.500000000000000000e+01
7.968796730041503906e+00 3.508534431457519531e+00 4.234521389007568359e-01 1.200000000000000000e+01
7.898022651672363281e+00 3.448490381240844727e+00 4.198804199695587158e-01 7.000000000000000000e+00
7.905261039733886719e+00 3.394052028656005859e+00 4.192784428596496582e-01 6.000000000000000000e+00
8.073769569396972656e+00 3.437091112136840820e+00 4.261811077594757080e-01 1.600000000000000000e+01
9.564310073852539062e+00 1.665123820304870605e+00 4.636642038822174072e-01 2.400000000000000000e+01
9.515202522277832031e+00 1.626516103744506836e+00 4.614569544792175293e-01 2.300000000000000000e+01
9.396969795227050781e+00 1.576655507087707520e+00 4.564404785633087158e-01 3.300000000000000000e+01
9.295281410217285156e+00 1.530294418334960938e+00 4.521062374114990234e-01 2.000000000000000000e+01
8.547290802001953125e+00 1.380272626876831055e+00 4.214856922626495361e-01 1.700000000000000000e+01
8.581092834472656250e+00 1.358729720115661621e+00 4.226896464824676514e-01 1.500000000000000000e+01
8.334425926208496094e+00 1.293489098548889160e+00 4.124961793422698975e-01 2.900000000000000000e+01
8.296865463256835938e+00 1.261607050895690918e+00 4.108106195926666260e-01 2.900000000000000000e+01
8.163322448730468750e+00 1.215697169303894043e+00 4.052323102951049805e-01 2.700000000000000000e+01
8.060228347778320312e+00 1.175085425376892090e+00 4.008980691432952881e-01 2.500000000000000000e+01
7.835292816162109375e+00 1.117768406867980957e+00 3.916276395320892334e-01 2.700000000000000000e+01
7.625917911529541016e+00 1.064051151275634766e+00 3.829993009567260742e-01 3.300000000000000000e+01
7.550933837890625000e+00 1.029986739158630371e+00 3.798289000988006592e-01 2.500000000000000000e+01
7.538210868835449219e+00 1.004704952239990234e+00 3.791867792606353760e-01 3.900000000000000000e+01
7.407493591308593750e+00 9.641714692115783691e-01 3.737689852714538574e-01 1.800000000000000000e+01
7.268670082092285156e+00 9.234427809715270996e-01 3.680301308631896973e-01 1.700000000000000000e+01
7.107852458953857422e+00 8.808730840682983398e-01 3.614083826541900635e-01 1.900000000000000000e+01
7.128376960754394531e+00 8.612183332443237305e-01 3.621307611465454102e-01 1.600000000000000000e+01
6.900760173797607422e+00 8.122625350952148438e-01 3.528201878070831299e-01 1.800000000000000000e+01
6.835715770721435547e+00 7.833566069602966309e-01 3.500912189483642578e-01 2.200000000000000000e+01
6.735802650451660156e+00 7.509850859642028809e-01 3.459576666355133057e-01 1.800000000000000000e+01
6.654630661010742188e+00 7.212783694267272949e-01 3.425865769386291504e-01 2.100000000000000000e+01
6.582283973693847656e+00 6.930178403854370117e-01 3.395766913890838623e-01 2.800000000000000000e+01
6.397502422332763672e+00 6.537387371063232422e-01 3.320319354534149170e-01 2.800000000000000000e+01
6.393511772155761719e+00 6.335177421569824219e-01 3.317911326885223389e-01 8.400000000000000000e+01
6.277064323425292969e+00 6.025475263595581055e-01 3.270154595375061035e-01 1.800000000000000000e+01
6.245056152343750000e+00 5.801471471786499023e-01 3.256509602069854736e-01 4.400000000000000000e+01
6.112454891204833984e+00 5.489304065704345703e-01 3.202331662178039551e-01 2.300000000000000000e+01
6.056373596191406250e+00 5.251732468605041504e-01 3.179055452346801758e-01 7.400000000000000000e+01
6.047998905181884766e+00 5.057582855224609375e-01 3.175042271614074707e-01 4.800000000000000000e+01
5.825427532196044922e+00 4.691718816757202148e-01 3.084745705127716064e-01 2.600000000000000000e+01
5.739171981811523438e+00 4.445151090621948242e-01 3.049429655075073242e-01 2.300000000000000000e+01
5.680722236633300781e+00 4.224645197391510010e-01 3.025350570678710938e-01 1.600000000000000000e+01
5.561394214630126953e+00 3.964482843875885010e-01 2.976790964603424072e-01 2.200000000000000000e+01
5.494796276092529297e+00 3.747670650482177734e-01 2.949501574039459229e-01 1.300000000000000000e+01
5.389231681823730469e+00 3.509694039821624756e-01 2.906560301780700684e-01 2.600000000000000000e+01
5.318478584289550781e+00 3.299854993820190430e-01 2.877665460109710693e-01 3.400000000000000000e+01
5.314478397369384766e+00 3.133734464645385742e-01 2.875658869743347168e-01 2.500000000000000000e+01
5.266530513763427734e+00 2.943399250507354736e-01 2.855994403362274170e-01 3.700000000000000000e+01
5.219513893127441406e+00 2.756561934947967529e-01 2.836731076240539551e-01 3.200000000000000000e+01
5.197381973266601562e+00 2.585022449493408203e-01 2.827500700950622559e-01 3.100000000000000000e+01
5.148244857788085938e+00 2.402317970991134644e-01 2.807434797286987305e-01 3.000000000000000000e+01
4.984246253967285156e+00 2.172725200653076172e-01 2.741217315196990967e-01 4.200000000000000000e+01
5.032811641693115234e+00 2.039169818162918091e-01 2.760480642318725586e-01 3.900000000000000000e+01
4.940553188323974609e+00 1.850076466798782349e-01 2.723158299922943115e-01 4.300000000000000000e+01
4.876187801361083984e+00 1.676246821880340576e-01 2.697072625160217285e-01 5.600000000000000000e+01
4.770816326141357422e+00 1.493607759475708008e-01 2.654532790184020996e-01 1.070000000000000000e+02
4.751276016235351562e+00 1.341614574193954468e-01 2.646506428718566895e-01 1.120000000000000000e+02
4.687736988067626953e+00 1.179819628596305847e-01 2.620822191238403320e-01 1.160000000000000000e+02
4.686079025268554688e+00 1.035556942224502563e-01 2.620019316673278809e-01 4.900000000000000000e+01
4.583476066589355469e+00 8.723140507936477661e-02 2.578683793544769287e-01 1.360000000000000000e+02
4.533768653869628906e+00 7.237713038921356201e-02 2.558617889881134033e-01 1.510000000000000000e+02
4.507992267608642578e+00 5.813526362180709839e-02 2.548183500766754150e-01 1.820000000000000000e+02
4.475177764892578125e+00 4.398428276181221008e-02 2.534939944744110107e-01 1.610000000000000000e+02
4.426331996917724609e+00 2.992890588939189911e-02 2.515275478363037109e-01 1.470000000000000000e+02
4.370448589324951172e+00 1.614861562848091125e-02 2.492801696062088013e-01 1.540000000000000000e+02
4.362483978271484375e+00 2.736094174906611443e-03 2.489591091871261597e-01 1.490000000000000000e+02
4.305517673492431641e+00 -1.050229743123054504e-02 2.466716021299362183e-01 4.600000000000000000e+01
4.254507064819335938e+00 -2.342483960092067719e-02 2.446248829364776611e-01 1.490000000000000000e+02
4.206455707550048828e+00 -3.606053814291954041e-02 2.426985502243041992e-01 1.820000000000000000e+02
4.172355175018310547e+00 -4.856611043214797974e-02 2.413340657949447632e-01 1.900000000000000000e+02
4.152204990386962891e+00 -6.107019633054733276e-02 2.405314296483993530e-01 1.780000000000000000e+02
4.137012481689453125e+00 -7.354050129652023315e-02 2.399294525384902954e-01 1.540000000000000000e+02
4.097807407379150391e+00 -8.541548997163772583e-02 2.383643239736557007e-01 1.710000000000000000e+02
4.058568477630615234e+00 -9.705061465501785278e-02 2.367991805076599121e-01 1.560000000000000000e+02
4.037276268005371094e+00 -1.089331209659576416e-01 2.359564155340194702e-01 1.760000000000000000e+02
3.969008922576904297e+00 -1.192694157361984253e-01 2.332274466753005981e-01 4.500000000000000000e+01
3.903712511062622070e+00 -1.292874664068222046e-01 2.306188791990280151e-01 1.840000000000000000e+02
3.902298927307128906e+00 -1.412270218133926392e-01 2.305787503719329834e-01 2.020000000000000000e+02
3.883875846862792969e+00 -1.524905115365982056e-01 2.298563718795776367e-01 1.840000000000000000e+02
3.835471630096435547e+00 -1.623705476522445679e-01 2.279300540685653687e-01 1.720000000000000000e+02
3.828966379165649414e+00 -1.738641262054443359e-01 2.276892662048339844e-01 1.720000000000000000e+02
3.805460691452026367e+00 -1.844945251941680908e-01 2.267662286758422852e-01 2.000000000000000000e+02
3.733030557632446289e+00 -1.924550235271453857e-01 2.238767445087432861e-01 1.670000000000000000e+02
3.735415697097778320e+00 -2.040708065032958984e-01 2.239971309900283813e-01 2.030000000000000000e+02
3.653972387313842773e+00 -2.108562588691711426e-01 2.207464575767517090e-01 1.740000000000000000e+02
3.635355949401855469e+00 -2.209718078374862671e-01 2.200240939855575562e-01 2.070000000000000000e+02
3.614717960357666016e+00 -2.308474928140640259e-01 2.192214578390121460e-01 1.780000000000000000e+02
3.593056678771972656e+00 -2.405317574739456177e-01 2.183786928653717041e-01 1.980000000000000000e+02
3.570373535156250000e+00 -2.500153481960296631e-01 2.174957841634750366e-01 1.900000000000000000e+02
3.542683362960815430e+00 -2.589970827102661133e-01 2.164122313261032104e-01 1.700000000000000000e+02
3.526927709579467773e+00 -2.687239050865173340e-01 2.158102542161941528e-01 1.880000000000000000e+02
3.517122268676757812e+00 -2.788311243057250977e-01 2.154490649700164795e-01 1.770000000000000000e+02
3.495338201522827148e+00 -2.878947556018829346e-01 2.146062999963760376e-01 1.970000000000000000e+02
3.462580680847167969e+00 -2.958900034427642822e-01 2.133220881223678589e-01 1.660000000000000000e+02
3.420849800109863281e+00 -3.028925061225891113e-01 2.116766721010208130e-01 1.580000000000000000e+02
3.383089065551757812e+00 -3.100070953369140625e-01 2.101918011903762817e-01 1.690000000000000000e+02
3.356259107589721680e+00 -3.179309964179992676e-01 2.091483771800994873e-01 1.610000000000000000e+02
3.348306894302368164e+00 -3.275443613529205322e-01 2.088674455881118774e-01 1.330000000000000000e+02
3.329391956329345703e+00 -3.360066413879394531e-01 2.081450819969177246e-01 1.300000000000000000e+02
3.305487632751464844e+00 -3.438383638858795166e-01 2.072220444679260254e-01 1.500000000000000000e+02
3.254742383956909180e+00 -3.486489951610565186e-01 2.052154541015625000e-01 1.400000000000000000e+02
3.262595891952514648e+00 -3.596193790435791016e-01 2.055766433477401733e-01 1.280000000000000000e+02
3.211836338043212891e+00 -3.639936447143554688e-01 2.035700529813766479e-01 1.170000000000000000e+02
3.199787139892578125e+00 -3.725728392601013184e-01 2.031286060810089111e-01 1.180000000000000000e+02
3.190692186355590820e+00 -3.814378082752227783e-01 2.028075456619262695e-01 1.150000000000000000e+02
3.155787706375122070e+00 -3.870835900306701660e-01 2.014430761337280273e-01 9.300000000000000000e+01
3.130792617797851562e+00 -3.937672972679138184e-01 2.004799097776412964e-01 9.000000000000000000e+01
3.106777429580688477e+00 -4.004291892051696777e-01 1.995568722486495972e-01 1.110000000000000000e+02
3.074826240539550781e+00 -4.059000611305236816e-01 1.983127892017364502e-01 1.050000000000000000e+02
3.064654827117919922e+00 -4.141258895397186279e-01 1.979515999555587769e-01 1.010000000000000000e+02
3.048523664474487305e+00 -4.214711487293243408e-01 1.973496228456497192e-01 9.100000000000000000e+01
3.018525600433349609e+00 -4.267608225345611572e-01 1.961858123540878296e-01 7.600000000000000000e+01
3.005335330963134766e+00 -4.343026280403137207e-01 1.957042217254638672e-01 7.900000000000000000e+01
2.941716194152832031e+00 -4.343161880970001221e-01 1.931759268045425415e-01 7.500000000000000000e+01
2.990757942199707031e+00 -4.509451985359191895e-01 1.952226459980010986e-01 5.600000000000000000e+01
2.944921016693115234e+00 -4.532710611820220947e-01 1.934167146682739258e-01 7.900000000000000000e+01
2.923775196075439453e+00 -4.591998755931854248e-01 1.926140785217285156e-01 7.600000000000000000e+01
2.925312519073486328e+00 -4.686424136161804199e-01 1.927344650030136108e-01 6.700000000000000000e+01
2.934707880020141602e+00 -4.793886840343475342e-01 1.931759268045425415e-01 9.200000000000000000e+01
2.877044200897216797e+00 -4.790263175964355469e-01 1.908884048461914062e-01 6.000000000000000000e+01
2.866695404052734375e+00 -4.863450229167938232e-01 1.905272156000137329e-01 6.800000000000000000e+01
2.840575456619262695e+00 -4.908796548843383789e-01 1.895239204168319702e-01 7.300000000000000000e+01
2.832167863845825195e+00 -4.983787238597869873e-01 1.892430037260055542e-01 6.700000000000000000e+01
2.820790290832519531e+00 -5.053017735481262207e-01 1.888416856527328491e-01 6.100000000000000000e+01
2.825124740600585938e+00 -5.150296688079833984e-01 1.890824735164642334e-01 4.900000000000000000e+01
2.803883075714111328e+00 -5.200468301773071289e-01 1.882798373699188232e-01 6.100000000000000000e+01
2.755146026611328125e+00 -5.197473168373107910e-01 1.863535195589065552e-01 6.900000000000000000e+01
2.752557277679443359e+00 -5.280091166496276855e-01 1.863133907318115234e-01 4.300000000000000000e+01
2.720523118972778320e+00 -5.305172801017761230e-01 1.850692927837371826e-01 7.500000000000000000e+01
2.713001966476440430e+00 -5.376946330070495605e-01 1.848285049200057983e-01 5.100000000000000000e+01
2.686852216720581055e+00 -5.410795211791992188e-01 1.838252097368240356e-01 4.800000000000000000e+01
2.665601968765258789e+00 -5.453113317489624023e-01 1.830225735902786255e-01 7.400000000000000000e+01
2.636525154113769531e+00 -5.477902889251708984e-01 1.818988919258117676e-01 5.900000000000000000e+01
2.640697956085205078e+00 -5.571151375770568848e-01 1.821396797895431519e-01 6.700000000000000000e+01
2.618459224700927734e+00 -5.608158111572265625e-01 1.812969148159027100e-01 6.200000000000000000e+01
2.607939243316650391e+00 -5.669345259666442871e-01 1.809357255697250366e-01 7.000000000000000000e+01
2.603260517120361328e+00 -5.742865800857543945e-01 1.808153241872787476e-01 6.700000000000000000e+01
2.563460350036621094e+00 -5.737520456314086914e-01 1.792501956224441528e-01 8.600000000000000000e+01
2.547072649002075195e+00 -5.782926678657531738e-01 1.786482185125350952e-01 6.200000000000000000e+01
2.539444446563720703e+00 -5.847578644752502441e-01 1.784074157476425171e-01 7.200000000000000000e+01
2.508449316024780273e+00 -5.857242941856384277e-01 1.772034615278244019e-01 7.500000000000000000e+01
2.506640434265136719e+00 -5.934173464775085449e-01 1.772034615278244019e-01 7.200000000000000000e+01
2.493149280548095703e+00 -5.983045697212219238e-01 1.767218858003616333e-01 6.900000000000000000e+01
2.472856044769287109e+00 -6.014602780342102051e-01 1.759593784809112549e-01 6.100000000000000000e+01
2.470029115676879883e+00 -6.088047623634338379e-01 1.759192496538162231e-01 5.900000000000000000e+01
2.445853948593139648e+00 -6.108072400093078613e-01 1.749962121248245239e-01 6.200000000000000000e+01
2.439125537872314453e+00 -6.170818209648132324e-01 1.747955530881881714e-01 5.700000000000000000e+01
2.429477930068969727e+00 -6.225761771202087402e-01 1.744745075702667236e-01 7.400000000000000000e+01
2.417885303497314453e+00 -6.275147795677185059e-01 1.740731894969940186e-01 5.300000000000000000e+01
2.396622180938720703e+00 -6.298465132713317871e-01 1.732705533504486084e-01 4.900000000000000000e+01
2.385023117065429688e+00 -6.346250176429748535e-01 1.728692352771759033e-01 6.300000000000000000e+01
2.364734649658203125e+00 -6.369974613189697266e-01 1.721067279577255249e-01 6.300000000000000000e+01
2.361805200576782227e+00 -6.439863443374633789e-01 1.720665991306304932e-01 5.800000000000000000e+01
2.348260879516601562e+00 -6.480371356010437012e-01 1.715850234031677246e-01 5.800000000000000000e+01
2.346261739730834961e+00 -6.552384495735168457e-01 1.715850234031677246e-01 5.400000000000000000e+01
2.333663940429687500e+00 -6.594426035881042480e-01 1.711435616016387939e-01 8.000000000000000000e+01
2.316259622573852539e+00 -6.622014045715332031e-01 1.705014556646347046e-01 6.600000000000000000e+01
2.325734615325927734e+00 -6.726380586624145508e-01 1.709830462932586670e-01 5.500000000000000000e+01
2.309275865554809570e+00 -6.755589842796325684e-01 1.703810691833496094e-01 7.100000000000000000e+01
2.280366420745849609e+00 -6.746973395347595215e-01 1.692573726177215576e-01 7.200000000000000000e+01
2.296472549438476562e+00 -6.871360540390014648e-01 1.700198799371719360e-01 5.900000000000000000e+01
2.286703109741210938e+00 -6.918618679046630859e-01 1.696988195180892944e-01 6.200000000000000000e+01
2.271193742752075195e+00 -6.947791576385498047e-01 1.691369712352752686e-01 7.100000000000000000e+01
2.273823976516723633e+00 -7.032209634780883789e-01 1.693376302719116211e-01 6.000000000000000000e+01
2.255444526672363281e+00 -7.051216959953308105e-01 1.686553955078125000e-01 6.300000000000000000e+01
2.239933013916015625e+00 -7.078201174736022949e-01 1.680935472249984741e-01 7.300000000000000000e+01
2.241557836532592773e+00 -7.159056067466735840e-01 1.682540774345397949e-01 6.100000000000000000e+01
2.220334529876708984e+00 -7.166369557380676270e-01 1.674514412879943848e-01 5.100000000000000000e+01
2.218125343322753906e+00 -7.234454751014709473e-01 1.674514412879943848e-01 6.100000000000000000e+01
2.207355022430419922e+00 -7.274307012557983398e-01 1.670902520418167114e-01 7.000000000000000000e+01
2.176674127578735352e+00 -7.247237563133239746e-01 1.658862978219985962e-01 6.600000000000000000e+01
2.183910369873046875e+00 -7.345858812332153320e-01 1.662876158952713013e-01 7.300000000000000000e+01
2.145698308944702148e+00 -7.290593981742858887e-01 1.647626161575317383e-01 7.500000000000000000e+01
2.129276275634765625e+00 -7.307704091072082520e-01 1.641606390476226807e-01 5.700000000000000000e+01
2.105312108993530273e+00 -7.297678589820861816e-01 1.632376015186309814e-01 6.400000000000000000e+01
2.091747283935546875e+00 -7.322592139244079590e-01 1.627560257911682129e-01 6.400000000000000000e+01
2.076303005218505859e+00 -7.340076565742492676e-01 1.621941775083541870e-01 5.600000000000000000e+01
2.074982404708862305e+00 -7.407103776931762695e-01 1.622343063354492188e-01 7.700000000000000000e+01
2.077399730682373047e+00 -7.487679123878479004e-01 1.624349653720855713e-01 1.030000000000000000e+02
2.072276115417480469e+00 -7.541120648384094238e-01 1.623145788908004761e-01 6.500000000000000000e+01
2.068077087402343750e+00 -7.597765922546386719e-01 1.622343063354492188e-01 7.100000000000000000e+01
2.073230504989624023e+00 -7.688990831375122070e-01 1.625553667545318604e-01 8.000000000000000000e+01
2.057762145996093750e+00 -7.703486084938049316e-01 1.619935184717178345e-01 5.600000000000000000e+01
2.048846721649169922e+00 -7.741842865943908691e-01 1.617126017808914185e-01 6.800000000000000000e+01
2.036193132400512695e+00 -7.765475511550903320e-01 1.612711399793624878e-01 7.300000000000000000e+01
2.031003952026367188e+00 -7.817134261131286621e-01 1.611507534980773926e-01 7.400000000000000000e+01
2.031390190124511719e+00 -7.890267372131347656e-01 1.612711399793624878e-01 7.100000000000000000e+01
2.041982650756835938e+00 -8.003630638122558594e-01 1.618329882621765137e-01 7.100000000000000000e+01
2.046021223068237305e+00 -8.091978430747985840e-01 1.621139198541641235e-01 6.000000000000000000e+01
2.040745019912719727e+00 -8.143595457077026367e-01 1.619935184717178345e-01 7.300000000000000000e+01
2.033602952957153320e+00 -8.187496662139892578e-01 1.617928594350814819e-01 7.600000000000000000e+01
2.021825075149536133e+00 -8.212225437164306641e-01 1.613915413618087769e-01 7.400000000000000000e+01
1.993410110473632812e+00 -8.168076276779174805e-01 1.602678447961807251e-01 8.100000000000000000e+01
1.968734860420227051e+00 -8.137538433074951172e-01 1.593046933412551880e-01 8.000000000000000000e+01
1.956085324287414551e+00 -8.155579566955566406e-01 1.588632315397262573e-01 6.800000000000000000e+01
1.930549740791320801e+00 -8.118662834167480469e-01 1.578599363565444946e-01 9.200000000000000000e+01
1.924370765686035156e+00 -8.162238001823425293e-01 1.576994210481643677e-01 6.900000000000000000e+01
1.905323266983032227e+00 -8.150461912155151367e-01 1.569770425558090210e-01 8.200000000000000000e+01
1.885383844375610352e+00 -8.133634328842163086e-01 1.562145352363586426e-01 7.100000000000000000e+01
1.874634265899658203e+00 -8.155543804168701172e-01 1.558533608913421631e-01 8.300000000000000000e+01
1.842846035957336426e+00 -8.084492683410644531e-01 1.545691341161727905e-01 7.900000000000000000e+01
1.856803297996520996e+00 -8.213793039321899414e-01 1.552915126085281372e-01 8.300000000000000000e+01
1.829638838768005371e+00 -8.160763382911682129e-01 1.542079448699951172e-01 7.600000000000000000e+01
1.823481798171997070e+00 -8.200455904006958008e-01 1.540474295616149902e-01 7.500000000000000000e+01
1.850074768066406250e+00 -8.388469219207763672e-01 1.553316414356231689e-01 8.700000000000000000e+01
1.810237884521484375e+00 -8.274781703948974609e-01 1.536862403154373169e-01 7.800000000000000000e+01
1.824930787086486816e+00 -8.409778475761413574e-01 1.544487476348876953e-01 7.200000000000000000e+01
1.838651537895202637e+00 -8.541542291641235352e-01 1.551711112260818481e-01 8.700000000000000000e+01
1.811593174934387207e+00 -8.483438491821289062e-01 1.540875583887100220e-01 8.100000000000000000e+01
1.822534203529357910e+00 -8.602989315986633301e-01 1.546895354986190796e-01 7.500000000000000000e+01
1.825299263000488281e+00 -8.684634566307067871e-01 1.549303233623504639e-01 7.800000000000000000e+01
1.796501755714416504e+00 -8.615230917930603027e-01 1.537664979696273804e-01 8.600000000000000000e+01
1.798347830772399902e+00 -8.692058324813842773e-01 1.539671570062637329e-01 8.300000000000000000e+01
1.789385437965393066e+00 -8.716543912887573242e-01 1.536862403154373169e-01 8.900000000000000000e+01
1.768766283988952637e+00 -8.683289289474487305e-01 1.528836041688919067e-01 6.700000000000000000e+01
1.766989350318908691e+00 -8.741946220397949219e-01 1.529237329959869385e-01 8.600000000000000000e+01
1.758040308952331543e+00 -8.764892220497131348e-01 1.526428163051605225e-01 8.000000000000000000e+01
1.748201131820678711e+00 -8.782883882522583008e-01 1.523217558860778809e-01 1.120000000000000000e+02
1.738367557525634766e+00 -8.800354003906250000e-01 1.520006954669952393e-01 8.700000000000000000e+01
1.724089860916137695e+00 -8.794590830802917480e-01 1.514789909124374390e-01 8.000000000000000000e+01
1.714275121688842773e+00 -8.810884952545166016e-01 1.511579304933547974e-01 9.200000000000000000e+01
1.707128047943115234e+00 -8.840451240539550781e-01 1.509572714567184448e-01 8.900000000000000000e+01
1.704407811164855957e+00 -8.892783522605895996e-01 1.509572714567184448e-01 1.000000000000000000e+02
1.693712711334228516e+00 -8.903168439865112305e-01 1.505960822105407715e-01 1.020000000000000000e+02
1.701567888259887695e+00 -9.011232256889343262e-01 1.510776728391647339e-01 1.090000000000000000e+02
1.697913885116577148e+00 -9.058687686920166016e-01 1.510375440120697021e-01 1.050000000000000000e+02
1.676646590232849121e+00 -9.011350274085998535e-01 1.501947641372680664e-01 6.900000000000000000e+01
1.684416651725769043e+00 -9.119862318038940430e-01 1.506763547658920288e-01 9.400000000000000000e+01
1.671962857246398926e+00 -9.118844270706176758e-01 1.502349078655242920e-01 8.700000000000000000e+01
