# .PCD v.7 - Point Cloud Data file format
VERSION .7
FIELDS x y z intensity
SIZE 4 4 4 4
TYPE F F F F
COUNT 1 1 1 1
WIDTH 476
HEIGHT 1
VIEWPOINT 0 0 0 1 0 0 0
POINTS 476
DATA ascii
3.654336690902709961e+00 -2.587056875228881836e+00 2.535742819309234619e-01 8.600000000000000000e+01
3.629295349121093750e+00 -2.586077690124511719e+00 2.527315020561218262e-01 6.800000000000000000e+01
3.520669221878051758e+00 -2.524979591369628906e+00 2.477551549673080444e-01 1.360000000000000000e+02
3.479691982269287109e+00 -2.511787652969360352e+00 2.461097538471221924e-01 1.600000000000000000e+02
3.440445423126220703e+00 -2.499542951583862305e+00 2.445446103811264038e-01 1.840000000000000000e+02
3.476311922073364258e+00 -2.541939258575439453e+00 2.467117309570312500e-01 1.040000000000000000e+02
3.330090761184692383e+00 -2.450709819793701172e+00 2.398090660572052002e-01 1.310000000000000000e+02
3.326570749282836914e+00 -2.463888883590698242e+00 2.400097250938415527e-01 1.870000000000000000e+02
3.265326499938964844e+00 -2.434066057205200195e+00 2.373208999633789062e-01 1.760000000000000000e+02
3.250650882720947266e+00 -2.438674926757812500e+00 2.369597107172012329e-01 1.590000000000000000e+02
3.164215326309204102e+00 -2.389021396636962891e+00 2.329866588115692139e-01 1.310000000000000000e+02
3.149711608886718750e+00 -2.393276214599609375e+00 2.326254695653915405e-01 1.590000000000000000e+02
3.125687599182128906e+00 -2.390180110931396484e+00 2.317827045917510986e-01 1.690000000000000000e+02
3.087460517883300781e+00 -2.375988245010375977e+00 2.302175611257553101e-01 1.290000000000000000e+02
2.998006105422973633e+00 -2.321810483932495117e+00 2.260438650846481323e-01 4.500000000000000000e+01
2.982988595962524414e+00 -2.324854135513305664e+00 2.256425470113754272e-01 1.730000000000000000e+02
2.969552993774414062e+00 -2.329060792922973633e+00 2.253214865922927856e-01 1.620000000000000000e+02
2.941218852996826172e+00 -2.321443080902099609e+00 2.242379337549209595e-01 1.370000000000000000e+02
2.876189947128295898e+00 -2.284460306167602539e+00 2.212681770324707031e-01 1.600000000000000000e+02
2.847315788269042969e+00 -2.275802850723266602e+00 2.201444804668426514e-01 1.380000000000000000e+02
2.828642606735229492e+00 -2.275132417678833008e+00 2.195425033569335938e-01 1.640000000000000000e+02
2.807670831680297852e+00 -2.272482633590698242e+00 2.188201397657394409e-01 1.180000000000000000e+02
2.743361473083496094e+00 -2.234383344650268555e+00 2.158503830432891846e-01 1.320000000000000000e+02
2.717948436737060547e+00 -2.227585792541503906e+00 2.148872166872024536e-01 9.000000000000000000e+01
2.692603111267089844e+00 -2.220653295516967773e+00 2.139240503311157227e-01 6.300000000000000000e+01
2.665019750595092773e+00 -2.211671829223632812e+00 2.128404974937438965e-01 1.070000000000000000e+02
2.614511489868164062e+00 -2.183325052261352539e+00 2.105529904365539551e-01 1.950000000000000000e+02
2.626922845840454102e+00 -2.207408905029296875e+00 2.115562856197357178e-01 2.610000000000000000e+02
2.623952627182006836e+00 -2.218684196472167969e+00 2.117569446563720703e-01 2.870000000000000000e+02
2.617133617401123047e+00 -2.226723909378051758e+00 2.117569446563720703e-01 3.150000000000000000e+02
2.606495141983032227e+00 -2.231492996215820312e+00 2.115562856197357178e-01 2.590000000000000000e+02
2.483825922012329102e+00 -2.139683485031127930e+00 2.054161131381988525e-01 1.240000000000000000e+02
2.452337026596069336e+00 -2.125692605972290039e+00 2.040917724370956421e-01 1.140000000000000000e+02
2.458603620529174805e+00 -2.144373416900634766e+00 2.047740072011947632e-01 8.900000000000000000e+01
2.385183334350585938e+00 -2.093237638473510742e+00 2.012022733688354492e-01 7.800000000000000000e+01
2.395225286483764648e+00 -2.115098476409912109e+00 2.020851820707321167e-01 8.400000000000000000e+01
2.375281810760498047e+00 -2.110488653182983398e+00 2.013628035783767700e-01 8.300000000000000000e+01
2.332300662994384766e+00 -2.085128068923950195e+00 1.993963420391082764e-01 8.600000000000000000e+01
2.316979646682739258e+00 -2.084253311157226562e+00 1.989147663116455078e-01 7.400000000000000000e+01
3.951368093490600586e+00 2.835013151168823242e+00 2.394047975540161133e-01 1.350000000000000000e+02
3.947840213775634766e+00 2.814174890518188477e+00 2.388943880796432495e-01 1.770000000000000000e+02
3.943406105041503906e+00 2.792807340621948242e+00 2.383499592542648315e-01 1.710000000000000000e+02
3.939695596694946289e+00 2.772068977355957031e+00 2.378395497798919678e-01 1.790000000000000000e+02
3.933437824249267578e+00 2.749661684036254883e+00 2.372270524501800537e-01 1.980000000000000000e+02
3.914766788482666016e+00 2.718767166137695312e+00 2.361041456460952759e-01 1.810000000000000000e+02
3.904169559478759766e+00 2.693689346313476562e+00 2.353215217590332031e-01 1.760000000000000000e+02
3.886036396026611328e+00 2.663616418838500977e+00 2.342326492071151733e-01 2.070000000000000000e+02
3.877668619155883789e+00 2.640430927276611328e+00 2.335520982742309570e-01 1.990000000000000000e+02
3.870023012161254883e+00 2.617882013320922852e+00 2.329055815935134888e-01 2.160000000000000000e+02
3.858957767486572266e+00 2.593174934387207031e+00 2.321229428052902222e-01 2.440000000000000000e+02
3.839465379714965820e+00 2.563011407852172852e+00 2.310000509023666382e-01 2.460000000000000000e+02
3.841480255126953125e+00 2.547353506088256836e+00 2.307618558406829834e-01 2.190000000000000000e+02
3.835923671722412109e+00 2.526759386062622070e+00 2.302174121141433716e-01 2.320000000000000000e+02
3.831113338470458984e+00 2.506770372390747070e+00 2.297070026397705078e-01 2.580000000000000000e+02
3.828730344772338867e+00 2.488468885421752930e+00 2.292986810207366943e-01 2.520000000000000000e+02
3.818714857101440430e+00 2.465326786041259766e+00 2.285841107368469238e-01 2.850000000000000000e+02
3.813641071319580078e+00 2.445506572723388672e+00 2.280737012624740601e-01 2.840000000000000000e+02
3.802581310272216797e+00 2.421982526779174805e+00 2.273250967264175415e-01 2.730000000000000000e+02
3.802392721176147461e+00 2.405495882034301758e+00 2.270188480615615845e-01 2.890000000000000000e+02
3.778444766998291016e+00 2.374144077301025391e+00 2.257598340511322021e-01 2.640000000000000000e+02
3.762819051742553711e+00 2.348253488540649414e+00 2.248411029577255249e-01 3.060000000000000000e+02
3.763209819793701172e+00 2.332485914230346680e+00 2.245688736438751221e-01 3.030000000000000000e+02
3.760986328125000000e+00 2.315166234970092773e+00 2.241945713758468628e-01 2.940000000000000000e+02
3.736522436141967773e+00 2.284327507019042969e+00 2.229355722665786743e-01 3.000000000000000000e+02
3.736678838729858398e+00 2.268703699111938477e+00 2.226633429527282715e-01 3.100000000000000000e+02
3.728216171264648438e+00 2.247939348220825195e+00 2.220508605241775513e-01 3.110000000000000000e+02
3.714516639709472656e+00 2.224167823791503906e+00 2.212342023849487305e-01 3.240000000000000000e+02
3.714450597763061523e+00 2.208674907684326172e+00 2.209619730710983276e-01 2.980000000000000000e+02
3.718627452850341797e+00 2.195744037628173828e+00 2.208599001169204712e-01 3.370000000000000000e+02
3.722760200500488281e+00 2.182808637619018555e+00 2.207578122615814209e-01 3.280000000000000000e+02
3.717347860336303711e+00 2.164336442947387695e+00 2.202814370393753052e-01 3.360000000000000000e+02
3.704935789108276367e+00 2.141916036605834961e+00 2.195328325033187866e-01 3.590000000000000000e+02
3.695888280868530273e+00 2.121582984924316406e+00 2.189203351736068726e-01 2.990000000000000000e+02
3.686750888824462891e+00 2.101325273513793945e+00 2.183078527450561523e-01 3.010000000000000000e+02
3.673175334930419922e+00 2.078682661056518555e+00 2.175252139568328857e-01 2.870000000000000000e+02
3.669951200485229492e+00 2.062018156051635742e+00 2.171509116888046265e-01 3.160000000000000000e+02
3.654440402984619141e+00 2.038576364517211914e+00 2.163002341985702515e-01 3.130000000000000000e+02
3.639694929122924805e+00 2.015733480453491211e+00 2.154835760593414307e-01 2.830000000000000000e+02
3.632725715637207031e+00 1.997334241867065430e+00 2.149731665849685669e-01 3.470000000000000000e+02
3.636204719543457031e+00 1.984743237495422363e+00 2.148710787296295166e-01 3.220000000000000000e+02
3.630853652954101562e+00 1.967388033866882324e+00 2.144287228584289551e-01 3.230000000000000000e+02
3.623670101165771484e+00 1.949137449264526367e+00 2.139183133840560913e-01 3.450000000000000000e+02
3.605829715728759766e+00 1.925300240516662598e+00 2.129995822906494141e-01 3.280000000000000000e+02
3.594941616058349609e+00 1.905335426330566406e+00 2.123530656099319458e-01 3.540000000000000000e+02
3.590156555175781250e+00 1.888713240623474121e+00 2.119447290897369385e-01 3.570000000000000000e+02
3.585303306579589844e+00 1.872138261795043945e+00 2.115364074707031250e-01 3.340000000000000000e+02
3.583044290542602539e+00 1.856990694999694824e+00 2.112301588058471680e-01 3.220000000000000000e+02
3.574505090713500977e+00 1.838674306869506836e+00 2.106857150793075562e-01 3.580000000000000000e+02
3.568557739257812500e+00 1.821791172027587891e+00 2.102433592081069946e-01 3.400000000000000000e+02
3.554517030715942383e+00 1.800896406173706055e+00 2.094947546720504761e-01 3.380000000000000000e+02
3.550203561782836914e+00 1.785043954849243164e+00 2.091204673051834106e-01 3.210000000000000000e+02
3.548509359359741211e+00 1.770573616027832031e+00 2.088482379913330078e-01 3.170000000000000000e+02
3.546759605407714844e+00 1.756130695343017578e+00 2.085760235786437988e-01 3.540000000000000000e+02
3.548542737960815430e+00 1.743478059768676758e+00 2.084399163722991943e-01 4.170000000000000000e+02
3.559264898300170898e+00 1.735211014747619629e+00 2.086440771818161011e-01 3.340000000000000000e+02
3.573568344116210938e+00 1.728635668754577637e+00 2.089843451976776123e-01 2.030000000000000000e+02
3.577954053878784180e+00 1.717231512069702148e+00 2.089503258466720581e-01 2.340000000000000000e+02
3.585912466049194336e+00 1.707535505294799805e+00 2.090524137020111084e-01 3.060000000000000000e+02
3.604688882827758789e+00 1.702930212020874023e+00 2.095628231763839722e-01 3.530000000000000000e+02
3.639759540557861328e+00 1.705860733985900879e+00 2.106857150793075562e-01 3.410000000000000000e+02
3.655850887298583984e+00 1.699742794036865234e+00 2.110940515995025635e-01 3.980000000000000000e+02
3.663770914077758789e+00 1.689774632453918457e+00 2.111961245536804199e-01 3.750000000000000000e+02
3.675299406051635742e+00 1.681437134742736816e+00 2.114343196153640747e-01 3.750000000000000000e+02
3.696822166442871094e+00 1.677588105201721191e+00 2.120468169450759888e-01 3.470000000000000000e+02
3.726557970046997070e+00 1.677314877510070801e+00 2.129655480384826660e-01 2.940000000000000000e+02
3.736249208450317383e+00 1.667911291122436523e+00 2.131356894969940186e-01 3.590000000000000000e+02
3.745918035507202148e+00 1.658463954925537109e+00 2.133058309555053711e-01 1.890000000000000000e+02
3.750073432922363281e+00 1.646562099456787109e+00 2.132717967033386230e-01 6.500000000000000000e+01
3.789010763168334961e+00 1.649813055992126465e+00 2.145308107137680054e-01 1.270000000000000000e+02
3.777539014816284180e+00 1.631049036979675293e+00 2.139183133840560913e-01 1.430000000000000000e+02
3.819274663925170898e+00 1.635187745094299316e+00 2.152794152498245239e-01 2.530000000000000000e+02
3.839912414550781250e+00 1.630102396011352539e+00 2.158578783273696899e-01 3.570000000000000000e+02
3.853185653686523438e+00 1.621803760528564453e+00 2.161641269922256470e-01 2.150000000000000000e+02
3.844308376312255859e+00 1.604200959205627441e+00 2.156537175178527832e-01 2.470000000000000000e+02
3.851058959960937500e+00 1.593163371086120605e+00 2.157217711210250854e-01 2.440000000000000000e+02
3.898463249206542969e+00 1.598786711692810059e+00 2.172870188951492310e-01 3.340000000000000000e+02
3.925569772720336914e+00 1.595852851867675781e+00 2.181036770343780518e-01 3.590000000000000000e+02
3.945278882980346680e+00 1.589779019355773926e+00 2.186481207609176636e-01 3.450000000000000000e+02
3.956634521484375000e+00 1.580262660980224609e+00 2.188863158226013184e-01 3.640000000000000000e+02
3.966110229492187500e+00 1.569955825805664062e+00 2.190564423799514771e-01 3.310000000000000000e+02
3.993237257003784180e+00 1.566541194915771484e+00 2.198731005191802979e-01 3.070000000000000000e+02
4.004544734954833984e+00 1.556818008422851562e+00 2.201112955808639526e-01 3.120000000000000000e+02
4.034482479095458984e+00 1.554226279258728027e+00 2.210300266742706299e-01 2.680000000000000000e+02
4.052303314208984375e+00 1.546831607818603516e+00 2.215064167976379395e-01 3.170000000000000000e+02
4.068247318267822266e+00 1.538635015487670898e+00 2.219147384166717529e-01 2.870000000000000000e+02
4.067333698272705078e+00 1.524042248725891113e+00 2.217105776071548462e-01 2.110000000000000000e+02
4.031702041625976562e+00 1.496599674224853516e+00 2.202474027872085571e-01 7.800000000000000000e+01
4.089740276336669922e+00 1.503886342048645020e+00 2.221869677305221558e-01 1.210000000000000000e+02
4.137531280517578125e+00 1.507067918777465820e+00 2.237522155046463013e-01 1.690000000000000000e+02
4.140255451202392578e+00 1.493688702583312988e+00 2.236841619014739990e-01 2.330000000000000000e+02
4.165523529052734375e+00 1.488378524780273438e+00 2.244327664375305176e-01 3.420000000000000000e+02
4.191740036010742188e+00 1.483260631561279297e+00 2.252154052257537842e-01 3.450000000000000000e+02
4.206645488739013672e+00 1.474029421806335449e+00 2.255896925926208496e-01 3.290000000000000000e+02
4.234753131866455078e+00 1.469307661056518555e+00 2.264403849840164185e-01 3.260000000000000000e+02
4.267596244812011719e+00 1.466050982475280762e+00 2.274612039327621460e-01 3.290000000000000000e+02
4.284374713897705078e+00 1.457135081291198730e+00 2.279035598039627075e-01 3.280000000000000000e+02
4.316292762756347656e+00 1.453233122825622559e+00 2.288903445005416870e-01 2.020000000000000000e+02
4.314093589782714844e+00 1.437771916389465332e+00 2.286521643400192261e-01 1.800000000000000000e+02
4.334619045257568359e+00 1.429852604866027832e+00 2.292306274175643921e-01 1.630000000000000000e+02
4.448242664337158203e+00 1.452220916748046875e+00 2.331437766551971436e-01 8.000000000000000000e+01
4.475501060485839844e+00 1.445941925048828125e+00 2.339604198932647705e-01 9.000000000000000000e+01
4.417087554931640625e+00 1.412116169929504395e+00 2.317146211862564087e-01 1.600000000000000000e+02
4.467137336730957031e+00 1.413027524948120117e+00 2.333479374647140503e-01 8.000000000000000000e+01
4.474312782287597656e+00 1.400211453437805176e+00 2.334500104188919067e-01 7.700000000000000000e+01
4.464266777038574219e+00 1.382043957710266113e+00 2.329396009445190430e-01 1.360000000000000000e+02
4.479953289031982422e+00 1.371853232383728027e+00 2.333479374647140503e-01 6.300000000000000000e+01
4.493706226348876953e+00 1.360999822616577148e+00 2.336882054805755615e-01 4.800000000000000000e+01
4.518922805786132812e+00 1.353516459465026855e+00 2.344368100166320801e-01 9.100000000000000000e+01
4.549885749816894531e+00 1.347594141960144043e+00 2.353895753622055054e-01 1.910000000000000000e+02
4.557835102081298828e+00 1.334752559661865234e+00 2.355256825685501099e-01 9.700000000000000000e+01
4.567668437957763672e+00 1.322430968284606934e+00 2.357298433780670166e-01 1.780000000000000000e+02
4.585155963897705078e+00 1.312261581420898438e+00 2.362062335014343262e-01 2.150000000000000000e+02
4.606470108032226562e+00 1.303085684776306152e+00 2.368187308311462402e-01 1.930000000000000000e+02
4.627771377563476562e+00 1.293791413307189941e+00 2.374312132596969604e-01 2.270000000000000000e+02
4.672178745269775391e+00 1.290766596794128418e+00 2.388603687286376953e-01 2.090000000000000000e+02
4.698291778564453125e+00 1.282480359077453613e+00 2.396429926156997681e-01 1.950000000000000000e+02
4.717643260955810547e+00 1.272224307060241699e+00 2.401874363422393799e-01 1.770000000000000000e+02
4.735044479370117188e+00 1.261346817016601562e+00 2.406638115644454956e-01 5.200000000000000000e+01
4.744691371917724609e+00 1.248340010643005371e+00 2.408679723739624023e-01 6.500000000000000000e+01
4.749465942382812500e+00 1.234028935432434082e+00 2.409020066261291504e-01 4.500000000000000000e+01
4.752261638641357422e+00 1.219203591346740723e+00 2.408679723739624023e-01 3.900000000000000000e+01
4.766636848449707031e+00 1.207317709922790527e+00 2.412422746419906616e-01 4.000000000000000000e+01
4.911875247955322266e+00 1.228085637092590332e+00 2.462102770805358887e-01 1.350000000000000000e+02
4.899124622344970703e+00 1.208939433097839355e+00 2.456318140029907227e-01 1.390000000000000000e+02
4.905723571777343750e+00 1.194612860679626465e+00 2.457338869571685791e-01 9.100000000000000000e+01
4.917139530181884766e+00 1.181424856185913086e+00 2.460061162710189819e-01 4.500000000000000000e+01
4.855585575103759766e+00 1.150888085365295410e+00 2.437262833118438721e-01 3.700000000000000000e+01
4.627478599548339844e+00 1.081829667091369629e+00 2.356277704238891602e-01 1.500000000000000000e+01
4.325955867767333984e+00 9.973402619361877441e-01 2.249772101640701294e-01 1.180000000000000000e+02
4.338740825653076172e+00 9.862794280052185059e-01 2.253174781799316406e-01 1.280000000000000000e+02
4.346621990203857422e+00 9.740566611289978027e-01 2.254876196384429932e-01 1.340000000000000000e+02
4.350565910339355469e+00 9.609323740005493164e-01 2.255216389894485474e-01 1.500000000000000000e+02
4.359353065490722656e+00 9.488560557365417480e-01 2.257258147001266479e-01 1.370000000000000000e+02
4.351494312286376953e+00 9.331717491149902344e-01 2.253515124320983887e-01 1.600000000000000000e+02
4.375849246978759766e+00 9.243623018264770508e-01 2.261001020669937134e-01 1.500000000000000000e+02
4.328762531280517578e+00 9.005496501922607422e-01 2.243647128343582153e-01 1.500000000000000000e+02
4.363814830780029297e+00 8.938845396041870117e-01 2.254876196384429932e-01 1.430000000000000000e+02
4.378293037414550781e+00 8.828634023666381836e-01 2.258959412574768066e-01 1.370000000000000000e+02
4.378040313720703125e+00 8.688430786132812500e-01 2.257938683032989502e-01 1.450000000000000000e+02
4.372838020324707031e+00 8.538747429847717285e-01 2.255216389894485474e-01 1.490000000000000000e+02
4.372492790222167969e+00 8.398893475532531738e-01 2.254195660352706909e-01 1.460000000000000000e+02
4.372102737426757812e+00 8.259141445159912109e-01 2.253174781799316406e-01 1.570000000000000000e+02
4.374616146087646484e+00 8.124968409538269043e-01 2.253174781799316406e-01 1.670000000000000000e+02
4.385936737060546875e+00 8.006875514984130859e-01 2.256237268447875977e-01 1.640000000000000000e+02
4.383453845977783203e+00 7.863454222679138184e-01 2.254535853862762451e-01 1.640000000000000000e+02
4.390767097473144531e+00 7.737609148025512695e-01 2.256237268447875977e-01 1.660000000000000000e+02
4.399028778076171875e+00 7.613093852996826172e-01 2.258278876543045044e-01 1.790000000000000000e+02
4.399373531341552734e+00 7.474748492240905762e-01 2.257598340511322021e-01 1.790000000000000000e+02
4.422347545623779297e+00 7.374270558357238770e-01 2.264744043350219727e-01 1.370000000000000000e+02
4.410780906677246094e+00 7.215964794158935547e-01 2.259980291128158569e-01 1.350000000000000000e+02
4.413960933685302734e+00 7.082194089889526367e-01 2.260320484638214111e-01 1.290000000000000000e+02
4.409202098846435547e+00 6.935868263244628906e-01 2.257938683032989502e-01 1.470000000000000000e+02
4.421186447143554688e+00 6.815794110298156738e-01 2.261341363191604614e-01 1.460000000000000000e+02
4.427209854125976562e+00 6.686093211174011230e-01 2.262702435255050659e-01 1.430000000000000000e+02
4.423307895660400391e+00 6.541461944580078125e-01 2.260660827159881592e-01 1.370000000000000000e+02
4.451011180877685547e+00 6.442961692810058594e-01 2.269507944583892822e-01 1.340000000000000000e+02
4.456924915313720703e+00 6.311983466148376465e-01 2.270869016647338867e-01 1.480000000000000000e+02
4.454880714416503906e+00 6.169731616973876953e-01 2.269507944583892822e-01 1.280000000000000000e+02
4.462694644927978516e+00 6.041074991226196289e-01 2.271549552679061890e-01 1.300000000000000000e+02
4.461554527282714844e+00 5.900200605392456055e-01 2.270528823137283325e-01 1.220000000000000000e+02
4.469291210174560547e+00 5.770975947380065918e-01 2.272570431232452393e-01 1.100000000000000000e+02
4.483931064605712891e+00 5.650080442428588867e-01 2.276993989944458008e-01 1.270000000000000000e+02
4.487627029418945312e+00 5.514927506446838379e-01 2.277674525976181030e-01 1.170000000000000000e+02
4.457543849945068359e+00 5.339176654815673828e-01 2.266785800457000732e-01 1.260000000000000000e+02
4.483977794647216797e+00 5.231358408927917480e-01 2.275292575359344482e-01 1.110000000000000000e+02
4.443854331970214844e+00 5.046389698982238770e-01 2.261001020669937134e-01 1.130000000000000000e+02
4.453328609466552734e+00 4.918811023235321045e-01 2.263723313808441162e-01 1.150000000000000000e+02
4.448854446411132812e+00 4.775758981704711914e-01 2.261681705713272095e-01 1.250000000000000000e+02
4.515904426574707031e+00 4.707663357257843018e-01 2.284139692783355713e-01 1.050000000000000000e+02
4.519316196441650391e+00 4.571107327938079834e-01 2.284820228815078735e-01 1.100000000000000000e+02
4.528654575347900391e+00 4.440239965915679932e-01 2.287542372941970825e-01 8.200000000000000000e+01
4.531985282897949219e+00 4.303171932697296143e-01 2.288222908973693848e-01 1.170000000000000000e+02
4.537265300750732422e+00 4.167770445346832275e-01 2.289584130048751831e-01 9.600000000000000000e+01
4.539517879486083984e+00 4.029433429241180420e-01 2.289924323558807373e-01 1.250000000000000000e+02
4.543720245361328125e+00 3.892704546451568604e-01 2.290945202112197876e-01 9.100000000000000000e+01
4.541904926300048828e+00 3.750818073749542236e-01 2.289924323558807373e-01 9.200000000000000000e+01
4.546023368835449219e+00 3.613833785057067871e-01 2.290945202112197876e-01 9.200000000000000000e+01
4.518211841583251953e+00 3.452255427837371826e-01 2.281077206134796143e-01 1.180000000000000000e+02
4.526226520538330078e+00 3.318740725517272949e-01 2.283459156751632690e-01 9.300000000000000000e+01
4.535199165344238281e+00 3.185467422008514404e-01 2.286181300878524780e-01 1.090000000000000000e+02
4.551112651824951172e+00 3.056364655494689941e-01 2.291285395622253418e-01 9.400000000000000000e+01
4.561005592346191406e+00 2.922478914260864258e-01 2.294347882270812988e-01 1.050000000000000000e+02
4.559885501861572266e+00 2.781317830085754395e-01 2.293667346239089966e-01 8.700000000000000000e+01
4.567701339721679688e+00 2.645457088947296143e-01 2.296049296855926514e-01 9.800000000000000000e+01
4.549530982971191406e+00 2.494904994964599609e-01 2.289584130048751831e-01 6.500000000000000000e+01
4.572233200073242188e+00 2.366689294576644897e-01 2.297070026397705078e-01 8.900000000000000000e+01
4.565949916839599609e+00 2.222999483346939087e-01 2.294688224792480469e-01 7.000000000000000000e+01
4.553631305694580078e+00 2.076983153820037842e-01 2.290264666080474854e-01 8.700000000000000000e+01
4.589195251464843750e+00 1.952148526906967163e-01 2.302174121141433716e-01 5.900000000000000000e+01
4.574792861938476562e+00 1.805427819490432739e-01 2.297070026397705078e-01 9.100000000000000000e+01
4.598296642303466797e+00 1.673434674739837646e-01 2.304896414279937744e-01 8.800000000000000000e+01
4.618765830993652344e+00 1.539016813039779663e-01 2.311701774597167969e-01 1.050000000000000000e+02
4.627208232879638672e+00 1.399728059768676758e-01 2.314424067735671997e-01 8.300000000000000000e+01
4.644599437713623047e+00 1.262382864952087402e-01 2.320208698511123657e-01 8.100000000000000000e+01
4.649960517883300781e+00 1.121088787913322449e-01 2.321910113096237183e-01 7.400000000000000000e+01
4.668268203735351562e+00 9.822152554988861084e-02 2.328034937381744385e-01 1.010000000000000000e+02
4.687533378601074219e+00 8.424088358879089355e-02 2.334500104188919067e-01 1.060000000000000000e+02
4.689768791198730469e+00 6.988918781280517578e-02 2.335180789232254028e-01 9.400000000000000000e+01
4.657981872558593750e+00 5.512129515409469604e-02 2.324291914701461792e-01 8.500000000000000000e+01
4.661127090454101562e+00 4.085693508386611938e-02 2.325312793254852295e-01 6.700000000000000000e+01
4.668226242065429688e+00 2.659671008586883545e-02 2.327694743871688843e-01 8.500000000000000000e+01
4.662289619445800781e+00 1.225869264453649521e-02 2.325652986764907837e-01 8.000000000000000000e+01
4.643316268920898438e+00 -2.037403639405965805e-03 2.319187819957733154e-01 8.500000000000000000e+01
4.655281066894531250e+00 -1.632452197372913361e-02 2.323271185159683228e-01 6.600000000000000000e+01
4.718171119689941406e+00 -3.101839497685432434e-02 2.344708442687988281e-01 1.600000000000000000e+01
8.415452003479003906e+00 -1.068387255072593689e-01 3.603720366954803467e-01 2.600000000000000000e+01
8.434071540832519531e+00 -1.329554021358489990e-01 3.610185682773590088e-01 2.900000000000000000e+01
8.476591110229492188e+00 -1.596385240554809570e-01 3.624817430973052979e-01 2.200000000000000000e+01
8.537012100219726562e+00 -1.869773417711257935e-01 3.645573854446411133e-01 2.400000000000000000e+01
8.561375617980957031e+00 -2.137909084558486938e-01 3.654080927371978760e-01 2.400000000000000000e+01
8.752492904663085938e+00 -2.454309463500976562e-01 3.719413280487060547e-01 2.100000000000000000e+01
8.775673866271972656e+00 -2.730275094509124756e-01 3.727580010890960693e-01 3.300000000000000000e+01
8.876675605773925781e+00 -3.034303486347198486e-01 3.762287795543670654e-01 2.800000000000000000e+01
8.943616867065429688e+00 -3.331910073757171631e-01 3.785426318645477295e-01 2.200000000000000000e+01
9.006464004516601562e+00 -3.632042706012725830e-01 3.807203769683837891e-01 2.500000000000000000e+01
9.103157997131347656e+00 -3.950789868831634521e-01 3.840550780296325684e-01 2.400000000000000000e+01
9.103899955749511719e+00 -4.230979979038238525e-01 3.841231167316436768e-01 1.500000000000000000e+01
9.224339485168457031e+00 -4.570583105087280273e-01 3.882744610309600830e-01 1.700000000000000000e+01
9.400545120239257812e+00 -4.947018027305603027e-01 3.943313360214233398e-01 1.700000000000000000e+01
9.478813171386718750e+00 -5.279852151870727539e-01 3.970535099506378174e-01 2.600000000000000000e+01
9.540003776550292969e+00 -5.607568621635437012e-01 3.991972506046295166e-01 2.200000000000000000e+01
9.628014564514160156e+00 -5.955744385719299316e-01 4.022597074508666992e-01 2.600000000000000000e+01
9.699943542480468750e+00 -6.299012899398803711e-01 4.047777354717254639e-01 1.400000000000000000e+01
9.752806663513183594e+00 -6.633867621421813965e-01 4.066492319107055664e-01 2.200000000000000000e+01
9.934156417846679688e+00 -7.063441872596740723e-01 4.129102528095245361e-01 2.200000000000000000e+01
9.985763549804687500e+00 -7.408103346824645996e-01 4.147477447986602783e-01 1.200000000000000000e+01
9.966316223144531250e+00 -5.137404441833496094e+00 4.555805623531341553e-01 1.400000000000000000e+01
9.499055862426757812e+00 -4.933495521545410156e+00 4.382606446743011475e-01 9.000000000000000000e+00
9.571541786193847656e+00 -5.008486747741699219e+00 4.416293501853942871e-01 1.400000000000000000e+01
8.400616645812988281e+00 -4.428683280944824219e+00 3.971556127071380615e-01 9.000000000000000000e+00
7.862688541412353516e+00 -4.175983428955078125e+00 3.769433498382568359e-01 1.100000000000000000e+01
7.855127334594726562e+00 -4.202915191650390625e+00 3.771475255489349365e-01 2.100000000000000000e+01
7.399671554565429688e+00 -3.988481760025024414e+00 3.600317537784576416e-01 5.500000000000000000e+01
7.458543300628662109e+00 -4.049791812896728516e+00 3.627879619598388672e-01 2.010000000000000000e+02
7.436438560485839844e+00 -4.067379951477050781e+00 3.624136745929718018e-01 9.500000000000000000e+01
7.420423507690429688e+00 -4.088246345520019531e+00 3.622775673866271973e-01 1.770000000000000000e+02
7.404350280761718750e+00 -4.109053134918212891e+00 3.621414601802825928e-01 1.200000000000000000e+02
7.437073707580566406e+00 -4.157106399536132812e+00 3.639108836650848389e-01 3.550000000000000000e+02
7.370289325714111328e+00 -4.149505138397216797e+00 3.618011772632598877e-01 3.300000000000000000e+01
7.377520084381103516e+00 -4.183435440063476562e+00 3.625838160514831543e-01 4.100000000000000000e+01
6.221669197082519531e+00 -3.553306818008422852e+00 3.177697956562042236e-01 2.300000000000000000e+01
6.073855876922607422e+00 -3.493648290634155273e+00 3.123934566974639893e-01 3.200000000000000000e+01
6.083864688873291016e+00 -3.524288654327392578e+00 3.132101297378540039e-01 1.800000000000000000e+01
6.002235412597656250e+00 -3.501642465591430664e+00 3.104198873043060303e-01 1.900000000000000000e+01
5.870823383331298828e+00 -3.449166774749755859e+00 3.056560456752777100e-01 1.300000000000000000e+01
5.812045097351074219e+00 -3.438664436340332031e+00 3.037505149841308594e-01 1.400000000000000000e+01
5.668385028839111328e+00 -3.377193927764892578e+00 2.984762787818908691e-01 1.600000000000000000e+01
5.567152976989746094e+00 -3.340068340301513672e+00 2.948693931102752686e-01 1.300000000000000000e+01
5.470479488372802734e+00 -3.304937839508056641e+00 2.914326190948486328e-01 1.500000000000000000e+01
5.348459720611572266e+00 -3.253664016723632812e+00 2.869750261306762695e-01 2.100000000000000000e+01
5.231068134307861328e+00 -3.204283475875854492e+00 2.826876044273376465e-01 1.500000000000000000e+01
5.073199748992919922e+00 -3.129031658172607422e+00 2.767668366432189941e-01 4.500000000000000000e+01
5.094141483306884766e+00 -3.163561820983886719e+00 2.779918313026428223e-01 3.700000000000000000e+01
5.007297039031982422e+00 -3.130960226058959961e+00 2.748953402042388916e-01 2.300000000000000000e+01
4.888561248779296875e+00 -3.077623367309570312e+00 2.705058157444000244e-01 3.700000000000000000e+01
4.773577690124511719e+00 -3.025728225708007812e+00 2.662523686885833740e-01 1.300000000000000000e+01
4.700242519378662109e+00 -2.999500274658203125e+00 2.636663019657135010e-01 6.300000000000000000e+01
4.571617126464843750e+00 -2.937198162078857422e+00 2.588344216346740723e-01 2.900000000000000000e+01
4.560906410217285156e+00 -2.950124263763427734e+00 2.587663531303405762e-01 1.400000000000000000e+01
4.361717224121093750e+00 -2.840309143066406250e+00 2.510421574115753174e-01 1.300000000000000000e+01
4.325399875640869141e+00 -2.835596323013305664e+00 2.499192506074905396e-01 1.700000000000000000e+01
4.245776653289794922e+00 -2.802062511444091797e+00 2.470269352197647095e-01 2.700000000000000000e+01
4.211353778839111328e+00 -2.797931194305419922e+00 2.459720820188522339e-01 3.400000000000000000e+01
4.145427227020263672e+00 -2.772503137588500977e+00 2.436241954565048218e-01 2.700000000000000000e+01
4.117833614349365234e+00 -2.772371053695678711e+00 2.428415715694427490e-01 2.300000000000000000e+01
4.029056549072265625e+00 -2.730606317520141602e+00 2.395409196615219116e-01 3.900000000000000000e+01
3.949657201766967773e+00 -2.694518566131591797e+00 2.366145551204681396e-01 5.300000000000000000e+01
3.936428785324096680e+00 -2.703228950500488281e+00 2.364103943109512329e-01 6.300000000000000000e+01
3.836858749389648438e+00 -2.652215957641601562e+00 2.326333671808242798e-01 5.800000000000000000e+01
3.760611057281494141e+00 -2.616599798202514648e+00 2.298090904951095581e-01 6.300000000000000000e+01
3.705084562301635742e+00 -2.594873905181884766e+00 2.278355062007904053e-01 7.600000000000000000e+01
3.671782732009887695e+00 -2.588378667831420898e+00 2.267806529998779297e-01 7.000000000000000000e+01
3.616548299789428711e+00 -2.566089630126953125e+00 2.248070687055587769e-01 1.080000000000000000e+02
3.607031822204589844e+00 -2.576011180877685547e+00 2.247390151023864746e-01 9.100000000000000000e+01
3.491176366806030273e+00 -2.509486675262451172e+00 2.202133834362030029e-01 1.800000000000000000e+02
3.461597681045532227e+00 -2.504369497299194336e+00 2.192946374416351318e-01 2.090000000000000000e+02
3.434507131576538086e+00 -2.500859260559082031e+00 2.184779793024063110e-01 2.130000000000000000e+02
3.455839633941650391e+00 -2.532651185989379883e+00 2.197029739618301392e-01 1.060000000000000000e+02
3.349925518035888672e+00 -2.470869541168212891e+00 2.155516296625137329e-01 1.870000000000000000e+02
3.319859266281127930e+00 -2.464456319808959961e+00 2.145988643169403076e-01 2.090000000000000000e+02
3.283458709716796875e+00 -2.453097105026245117e+00 2.133738845586776733e-01 1.920000000000000000e+02
3.240768432617187500e+00 -2.436733007431030273e+00 2.118766754865646362e-01 2.070000000000000000e+02
3.200601100921630859e+00 -2.421939373016357422e+00 2.104815542697906494e-01 1.880000000000000000e+02
3.162145376205444336e+00 -2.408133506774902344e+00 2.091544866561889648e-01 1.960000000000000000e+02
3.134117603302001953e+00 -2.402017593383789062e+00 2.082697749137878418e-01 1.960000000000000000e+02
3.099825859069824219e+00 -2.390869855880737305e+00 2.071128487586975098e-01 1.850000000000000000e+02
2.932991981506347656e+00 -2.276588439941406250e+00 2.002393156290054321e-01 7.200000000000000000e+01
2.947260141372680664e+00 -2.302186250686645508e+00 2.011580616235733032e-01 2.040000000000000000e+02
2.917396545410156250e+00 -2.293306827545166016e+00 2.001712620258331299e-01 2.110000000000000000e+02
2.895453691482543945e+00 -2.290466308593750000e+00 1.995247453451156616e-01 2.080000000000000000e+02
2.899360418319702148e+00 -2.308052301406860352e+00 2.000011354684829712e-01 1.650000000000000000e+02
2.852483987808227539e+00 -2.285071134567260742e+00 1.982657313346862793e-01 1.850000000000000000e+02
2.812779426574707031e+00 -2.267469167709350586e+00 1.968365907669067383e-01 1.900000000000000000e+02
2.775538444519042969e+00 -2.251534223556518555e+00 1.955095231533050537e-01 1.970000000000000000e+02
2.737647771835327148e+00 -2.234760284423828125e+00 1.941484212875366211e-01 2.010000000000000000e+02
3.800431251525878906e+00 2.458310127258300781e+00 2.011284977197647095e-01 2.510000000000000000e+02
3.786929368972778320e+00 2.433132886886596680e+00 2.004260867834091187e-01 2.690000000000000000e+02
3.789319992065429688e+00 2.418277502059936523e+00 2.002575248479843140e-01 2.590000000000000000e+02
3.776457309722900391e+00 2.393798828125000000e+00 1.995832175016403198e-01 2.550000000000000000e+02
3.804932832717895508e+00 2.395513534545898438e+00 2.002856135368347168e-01 2.900000000000000000e+02
3.772426843643188477e+00 2.358924388885498047e+00 1.989651024341583252e-01 2.690000000000000000e+02
3.777947664260864258e+00 2.346285104751586914e+00 1.989089101552963257e-01 2.640000000000000000e+02
3.769813060760498047e+00 2.325239419937133789e+00 1.984031796455383301e-01 3.000000000000000000e+02
3.752208232879638672e+00 2.298523187637329102e+00 1.975883841514587402e-01 2.920000000000000000e+02
3.742161273956298828e+00 2.276612043380737305e+00 1.970264613628387451e-01 2.620000000000000000e+02
3.727737426757812500e+00 2.252200126647949219e+00 1.963240653276443481e-01 2.700000000000000000e+02
3.723485708236694336e+00 2.234068393707275391e+00 1.959588080644607544e-01 2.810000000000000000e+02
3.715722799301147461e+00 2.213937997817993164e+00 1.954811811447143555e-01 3.250000000000000000e+02
3.712173223495483398e+00 2.196420907974243164e+00 1.951440274715423584e-01 3.190000000000000000e+02
3.696484565734863281e+00 2.171858549118041992e+00 1.944135278463363647e-01 2.870000000000000000e+02
3.685861110687255859e+00 2.150434970855712891e+00 1.938516050577163696e-01 2.490000000000000000e+02
3.686386346817016602e+00 2.135609865188598633e+00 1.936549395322799683e-01 2.600000000000000000e+02
3.679056406021118164e+00 2.116317033767700195e+00 1.932054013013839722e-01 2.880000000000000000e+02
3.678587198257446289e+00 2.101054668426513672e+00 1.929806321859359741e-01 2.880000000000000000e+02
3.665885210037231445e+00 2.078912973403930664e+00 1.923625171184539795e-01 2.980000000000000000e+02
3.665277242660522461e+00 2.063733816146850586e+00 1.921377480030059814e-01 2.990000000000000000e+02
3.652394533157348633e+00 2.041750907897949219e+00 1.915196329355239868e-01 2.890000000000000000e+02
3.646404266357421875e+00 2.023746252059936523e+00 1.911262869834899902e-01 3.200000000000000000e+02
3.628080129623413086e+00 1.999045610427856445e+00 1.903395950794219971e-01 2.800000000000000000e+02
3.623671770095825195e+00 1.982150197029113770e+00 1.900024414062500000e-01 2.940000000000000000e+02
3.619193792343139648e+00 1.965300679206848145e+00 1.896652877330780029e-01 3.110000000000000000e+02
3.611126661300659180e+00 1.946600556373596191e+00 1.892157495021820068e-01 3.330000000000000000e+02
3.604742050170898438e+00 1.928911447525024414e+00 1.888224035501480103e-01 3.000000000000000000e+02
3.590337276458740234e+00 1.907060742378234863e+00 1.881761997938156128e-01 3.110000000000000000e+02
3.585559606552124023e+00 1.890443682670593262e+00 1.878390461206436157e-01 2.860000000000000000e+02
3.578942537307739258e+00 1.872947216033935547e+00 1.874457001686096191e-01 2.610000000000000000e+02
3.575800418853759766e+00 1.857351779937744141e+00 1.871647387742996216e-01 3.060000000000000000e+02
3.566376686096191406e+00 1.838587760925292969e+00 1.866870969533920288e-01 3.120000000000000000e+02
3.562211275100708008e+00 1.822630405426025391e+00 1.863780468702316284e-01 3.120000000000000000e+02
3.547285556793212891e+00 1.801286220550537109e+00 1.857318282127380371e-01 2.830000000000000000e+02
3.541189670562744141e+00 1.784548282623291016e+00 1.853665858507156372e-01 2.970000000000000000e+02
3.534130573272705078e+00 1.767417669296264648e+00 1.849732398986816406e-01 2.870000000000000000e+02
3.528790712356567383e+00 1.751235842704772949e+00 1.846360862255096436e-01 2.950000000000000000e+02
3.535043716430664062e+00 1.740842938423156738e+00 1.846641749143600464e-01 3.510000000000000000e+02
3.528691768646240234e+00 1.724285602569580078e+00 1.842989325523376465e-01 3.170000000000000000e+02
3.596031665802001953e+00 1.743534922599792480e+00 1.862375587224960327e-01 1.220000000000000000e+02
3.581545114517211914e+00 1.722963213920593262e+00 1.856194436550140381e-01 6.800000000000000000e+01
3.610270738601684570e+00 1.723159074783325195e+00 1.863499432802200317e-01 9.500000000000000000e+01
3.610119342803955078e+00 1.709508657455444336e+00 1.861813664436340332e-01 2.850000000000000000e+02
3.637062072753906250e+00 1.708622932434082031e+00 1.868556737899780273e-01 3.220000000000000000e+02
3.654972314834594727e+00 1.703366518020629883e+00 1.872490197420120239e-01 3.820000000000000000e+02
3.661995649337768555e+00 1.692983984947204590e+00 1.873052120208740234e-01 3.560000000000000000e+02
3.689889192581176758e+00 1.692155480384826660e+00 1.880076229572296143e-01 2.790000000000000000e+02
3.685963869094848633e+00 1.676689267158508301e+00 1.877266615629196167e-01 3.510000000000000000e+02
3.706581115722656250e+00 1.672359824180603027e+00 1.882042884826660156e-01 2.880000000000000000e+02
3.729031085968017578e+00 1.668735980987548828e+00 1.887381076812744141e-01 3.260000000000000000e+02
3.739615440368652344e+00 1.659719944000244141e+00 1.889066845178604126e-01 3.060000000000000000e+02
3.764818906784057617e+00 1.657096028327941895e+00 1.895247995853424072e-01 1.700000000000000000e+02
3.757058382034301758e+00 1.639940977096557617e+00 1.891314536333084106e-01 8.800000000000000000e+01
3.779502630233764648e+00 1.635949134826660156e+00 1.896652877330780029e-01 1.060000000000000000e+02
3.809306621551513672e+00 1.634988069534301758e+00 1.904238760471343994e-01 3.620000000000000000e+02
3.806026458740234375e+00 1.619771599769592285e+00 1.901710182428359985e-01 2.110000000000000000e+02
3.855186700820922852e+00 1.626735448837280273e+00 1.915196329355239868e-01 8.300000000000000000e+01
3.868459224700927734e+00 1.618371248245239258e+00 1.917724907398223877e-01 7.600000000000000000e+01
3.865095615386962891e+00 1.603049874305725098e+00 1.915196329355239868e-01 1.830000000000000000e+02
3.881090164184570312e+00 1.595744490623474121e+00 1.918567866086959839e-01 1.920000000000000000e+02
3.905407667160034180e+00 1.591750502586364746e+00 1.924467980861663818e-01 2.750000000000000000e+02
3.919541358947753906e+00 1.583504676818847656e+00 1.927277594804763794e-01 3.330000000000000000e+02
3.921597003936767578e+00 1.570357799530029297e+00 1.926434785127639771e-01 2.420000000000000000e+02
3.945908546447753906e+00 1.566060543060302734e+00 1.932334899902343750e-01 2.680000000000000000e+02
3.990696430206298828e+00 1.569675922393798828e+00 1.944416314363479614e-01 2.230000000000000000e+02
3.976865530014038086e+00 1.550166726112365723e+00 1.938797086477279663e-01 1.800000000000000000e+02
4.021700382232666016e+00 1.553441524505615234e+00 1.950878351926803589e-01 2.850000000000000000e+02
4.032048702239990234e+00 1.543238997459411621e+00 1.952564120292663574e-01 3.290000000000000000e+02
4.047046184539794922e+00 1.534759283065795898e+00 1.955654621124267578e-01 3.290000000000000000e+02
4.074194431304931641e+00 1.530771255493164062e+00 1.962397694587707520e-01 1.980000000000000000e+02
4.053576469421386719e+00 1.508852481842041016e+00 1.954811811447143555e-01 8.000000000000000000e+01
4.055372714996337891e+00 1.495371937751770020e+00 1.953968852758407593e-01 6.200000000000000000e+01
4.140693187713623047e+00 1.512407779693603516e+00 1.978131532669067383e-01 1.840000000000000000e+02
4.164113998413085938e+00 1.506496310234069824e+00 1.983750760555267334e-01 2.120000000000000000e+02
4.178126811981201172e+00 1.497084736824035645e+00 1.986560374498367310e-01 2.840000000000000000e+02
4.202484130859375000e+00 1.491277217864990234e+00 1.992460638284683228e-01 3.380000000000000000e+02
4.215527057647705078e+00 1.481358885765075684e+00 1.994989216327667236e-01 3.090000000000000000e+02
4.225717067718505859e+00 1.470389246940612793e+00 1.996674984693527222e-01 2.950000000000000000e+02
4.240604400634765625e+00 1.460998535156250000e+00 1.999765634536743164e-01 3.150000000000000000e+02
4.249797344207763672e+00 1.449594616889953613e+00 2.001170367002487183e-01 2.960000000000000000e+02
4.305368423461914062e+00 1.453813195228576660e+00 2.016342282295227051e-01 2.170000000000000000e+02
4.310756206512451172e+00 1.440914511680603027e+00 2.016623169183731079e-01 1.930000000000000000e+02
4.307564258575439453e+00 1.425171494483947754e+00 2.014375478029251099e-01 1.810000000000000000e+02
4.342316627502441406e+00 1.421900272369384766e+00 2.023366242647171021e-01 2.370000000000000000e+02
4.341903686523437500e+00 1.407031297683715820e+00 2.021961510181427002e-01 6.900000000000000000e+01
4.377612590789794922e+00 1.403773188591003418e+00 2.031233161687850952e-01 2.520000000000000000e+02
4.392379760742187500e+00 1.393660545349121094e+00 2.034323811531066895e-01 2.760000000000000000e+02
4.422386169433593750e+00 1.388259053230285645e+00 2.041909694671630859e-01 2.590000000000000000e+02
4.442853450775146484e+00 1.379722833633422852e+00 2.046686112880706787e-01 1.920000000000000000e+02
4.488154888153076172e+00 1.378703236579895020e+00 2.058767378330230713e-01 1.330000000000000000e+02
4.479929924011230469e+00 1.361150860786437988e+00 2.055114954710006714e-01 1.520000000000000000e+02
4.494615554809570312e+00 1.350563406944274902e+00 2.058205455541610718e-01 1.920000000000000000e+02
4.517902374267578125e+00 1.342460155487060547e+00 2.063824683427810669e-01 2.210000000000000000e+02
4.542140960693359375e+00 1.334508299827575684e+00 2.069724798202514648e-01 1.740000000000000000e+02
4.588451862335205078e+00 1.332831263542175293e+00 2.082087099552154541e-01 1.160000000000000000e+02
4.591558456420898438e+00 1.318472027778625488e+00 2.081806212663650513e-01 2.200000000000000000e+02
4.635009288787841797e+00 1.315565466880798340e+00 2.093325555324554443e-01 1.860000000000000000e+02
4.703509807586669922e+00 1.319421768188476562e+00 2.112150043249130249e-01 1.010000000000000000e+02
4.581342697143554688e+00 1.270017147064208984e+00 2.075344026088714600e-01 3.300000000000000000e+01
4.681629657745361328e+00 1.282353401184082031e+00 2.103440165519714355e-01 5.700000000000000000e+01
4.710629940032958984e+00 1.274770855903625488e+00 2.110745161771774292e-01 6.100000000000000000e+01
4.720313072204589844e+00 1.261861205101013184e+00 2.112430930137634277e-01 6.400000000000000000e+01
4.771521091461181641e+00 1.259873032569885254e+00 2.126197963953018188e-01 6.800000000000000000e+01
4.803414821624755859e+00 1.252539873123168945e+00 2.134345918893814087e-01 8.700000000000000000e+01
4.820787906646728516e+00 1.241285562515258789e+00 2.138279378414154053e-01 9.300000000000000000e+01
4.845887184143066406e+00 1.231905817985534668e+00 2.144460529088973999e-01 7.900000000000000000e+01
4.853522300720214844e+00 1.218005895614624023e+00 2.145584374666213989e-01 1.000000000000000000e+02
4.894107818603515625e+00 1.212238669395446777e+00 2.156260907649993896e-01 1.280000000000000000e+02
4.876441001892089844e+00 1.191998362541198730e+00 2.150079756975173950e-01 1.010000000000000000e+02
4.944211483001708984e+00 1.192494511604309082e+00 2.168623208999633789e-01 7.700000000000000000e+01
4.967296123504638672e+00 1.181946158409118652e+00 2.174242436885833740e-01 5.500000000000000000e+01
4.899856567382812500e+00 1.150034427642822266e+00 2.153732180595397949e-01 2.000000000000000000e+01
4.291766166687011719e+00 9.934927225112915039e-01 1.977288722991943359e-01 8.800000000000000000e+01
4.317209243774414062e+00 9.854348301887512207e-01 1.983750760555267334e-01 1.260000000000000000e+02
4.335815906524658203e+00 9.756946563720703125e-01 1.988246142864227295e-01 1.270000000000000000e+02
4.355379104614257812e+00 9.660659432411193848e-01 1.993022561073303223e-01 1.250000000000000000e+02
4.350510120391845703e+00 9.509924650192260742e-01 1.990774869918823242e-01 1.230000000000000000e+02
4.362202167510986328e+00 9.395340085029602051e-01 1.993303447961807251e-01 1.260000000000000000e+02
4.365064144134521484e+00 9.261465668678283691e-01 1.993303447961807251e-01 1.090000000000000000e+02
4.369842052459716797e+00 9.131590723991394043e-01 1.993865370750427246e-01 1.090000000000000000e+02
4.353040695190429688e+00 8.957211971282958984e-01 1.988246142864227295e-01 1.140000000000000000e+02
4.341072082519531250e+00 8.793867826461791992e-01 1.984031796455383301e-01 1.250000000000000000e+02
4.346690654754638672e+00 8.666504621505737305e-01 1.984874606132507324e-01 1.210000000000000000e+02
4.324806213378906250e+00 8.485025167465209961e-01 1.977850645780563354e-01 1.310000000000000000e+02
4.354871273040771484e+00 8.405312895774841309e-01 1.985717564821243286e-01 1.410000000000000000e+02
4.370196342468261719e+00 8.295888900756835938e-01 1.989369988441467285e-01 1.320000000000000000e+02
4.366825103759765625e+00 8.150776028633117676e-01 1.987684220075607300e-01 1.700000000000000000e+02
4.372254848480224609e+00 8.022173643112182617e-01 1.988527178764343262e-01 1.570000000000000000e+02
4.367809295654296875e+00 7.875588536262512207e-01 1.986560374498367310e-01 1.470000000000000000e+02
4.376110553741455078e+00 7.752003669738769531e-01 1.988246142864227295e-01 1.430000000000000000e+02
4.388316631317138672e+00 7.634832859039306641e-01 1.991055756807327271e-01 1.360000000000000000e+02
4.428409576416015625e+00 7.424892187118530273e-01 2.001170367002487183e-01 1.090000000000000000e+02
4.425734996795654297e+00 7.280887961387634277e-01 1.999765634536743164e-01 1.070000000000000000e+02
4.426960945129394531e+00 7.143482565879821777e-01 1.999484598636627197e-01 1.410000000000000000e+02
4.428144454956054688e+00 7.006070613861083984e-01 1.999203711748123169e-01 1.070000000000000000e+02
4.429285049438476562e+00 6.868653893470764160e-01 1.998922675848007202e-01 1.220000000000000000e+02
4.423465251922607422e+00 6.720729470252990723e-01 1.996674984693527222e-01 1.140000000000000000e+02
4.412652969360351562e+00 6.565877199172973633e-01 1.993022561073303223e-01 1.140000000000000000e+02
4.432451725006103516e+00 6.456382870674133301e-01 1.998079866170883179e-01 1.230000000000000000e+02
4.426494598388671875e+00 6.309092044830322266e-01 1.995832175016403198e-01 1.130000000000000000e+02
