# .PCD v.7 - Point Cloud Data file format
VERSION .7
FIELDS x y z intensity
SIZE 4 4 4 4
TYPE F F F F
COUNT 1 1 1 1
WIDTH 475
HEIGHT 1
VIEWPOINT 0 0 0 1 0 0 0
POINTS 475
DATA ascii
4.053303718566894531e+00 -2.148249864578247070e+00 1.477415114641189575e-01 8.300000000000000000e+01
4.029054641723632812e+00 -2.151254177093505859e+00 1.474203914403915405e-01 1.000000000000000000e+02
4.055895328521728516e+00 -2.181607246398925781e+00 1.480305343866348267e-01 8.900000000000000000e+01
4.061490058898925781e+00 -2.200710535049438477e+00 1.482553184032440186e-01 7.200000000000000000e+01
4.041555404663085938e+00 -2.205973625183105469e+00 1.480144709348678589e-01 7.400000000000000000e+01
4.053167343139648438e+00 -2.228480815887451172e+00 1.483516544103622437e-01 9.400000000000000000e+01
4.041937828063964844e+00 -2.238482713699340820e+00 1.482713818550109863e-01 8.000000000000000000e+01
4.036797523498535156e+00 -2.251847028732299805e+00 1.483034938573837280e-01 1.040000000000000000e+02
4.024640083312988281e+00 -2.261281967163085938e+00 1.482071578502655029e-01 8.900000000000000000e+01
4.014203071594238281e+00 -2.271648645401000977e+00 1.481429189443588257e-01 8.400000000000000000e+01
4.015901088714599609e+00 -2.288905382156372070e+00 1.483034938573837280e-01 8.100000000000000000e+01
4.002790451049804688e+00 -2.297730207443237305e+00 1.481910943984985352e-01 7.400000000000000000e+01
4.016496181488037109e+00 -2.322012424468994141e+00 1.485764533281326294e-01 6.700000000000000000e+01
4.011945247650146484e+00 -2.335833549499511719e+00 1.486246138811111450e-01 7.500000000000000000e+01
4.013384819030761719e+00 -2.353189229965209961e+00 1.487851738929748535e-01 7.800000000000000000e+01
4.021643161773681641e+00 -2.374643564224243164e+00 1.490741968154907227e-01 6.900000000000000000e+01
4.022933006286621094e+00 -2.392081737518310547e+00 1.492347568273544312e-01 7.400000000000000000e+01
4.013001441955566406e+00 -2.402871370315551758e+00 1.491865813732147217e-01 7.900000000000000000e+01
4.018454074859619141e+00 -2.422917366027832031e+00 1.494274288415908813e-01 8.400000000000000000e+01
4.011856555938720703e+00 -2.435753583908081055e+00 1.494434922933578491e-01 7.000000000000000000e+01
3.995834350585937500e+00 -2.442834138870239258e+00 1.492829322814941406e-01 7.800000000000000000e+01
3.996835231781005859e+00 -2.460324048995971680e+00 1.494434922933578491e-01 8.600000000000000000e+01
3.991817712783813477e+00 -2.474154949188232422e+00 1.494916528463363647e-01 7.200000000000000000e+01
3.985904693603515625e+00 -2.487448930740356445e+00 1.495237648487091064e-01 7.400000000000000000e+01
3.993492841720581055e+00 -2.509242773056030273e+00 1.498127877712249756e-01 6.300000000000000000e+01
3.989155292510986328e+00 -2.523621320724487305e+00 1.498770117759704590e-01 6.500000000000000000e+01
3.988140583038330078e+00 -2.540145874023437500e+00 1.500054597854614258e-01 7.200000000000000000e+01
3.955921411514282227e+00 -2.536714792251586914e+00 1.495398283004760742e-01 8.000000000000000000e+01
3.952320098876953125e+00 -2.551551342010498047e+00 1.496201008558273315e-01 6.100000000000000000e+01
3.943635225296020508e+00 -2.563119888305664062e+00 1.496040523052215576e-01 6.500000000000000000e+01
3.934916496276855469e+00 -2.574659109115600586e+00 1.495879888534545898e-01 5.700000000000000000e+01
3.934513568878173828e+00 -2.591670274734497070e+00 1.497325003147125244e-01 7.600000000000000000e+01
3.931543350219726562e+00 -2.607044935226440430e+00 1.498288363218307495e-01 6.100000000000000000e+01
3.922694921493530273e+00 -2.618539333343505859e+00 1.498127877712249756e-01 6.900000000000000000e+01
3.912153482437133789e+00 -2.628888368606567383e+00 1.497646123170852661e-01 6.300000000000000000e+01
3.901585340499877930e+00 -2.639197349548339844e+00 1.497164517641067505e-01 6.400000000000000000e+01
3.914130210876464844e+00 -2.665225982666015625e+00 1.501178592443466187e-01 6.000000000000000000e+01
3.908408880233764648e+00 -2.678917884826660156e+00 1.501660197973251343e-01 6.900000000000000000e+01
3.915807485580444336e+00 -2.701686382293701172e+00 1.504710912704467773e-01 6.400000000000000000e+01
3.909964084625244141e+00 -2.715398550033569336e+00 1.505192667245864868e-01 6.600000000000000000e+01
3.908170461654663086e+00 -2.731964826583862305e+00 1.506477147340774536e-01 6.700000000000000000e+01
3.900588035583496094e+00 -2.744517564773559570e+00 1.506637632846832275e-01 5.900000000000000000e+01
3.886438369750976562e+00 -2.752425670623779297e+00 1.505513787269592285e-01 6.200000000000000000e+01
3.888559341430664062e+00 -2.771882295608520508e+00 1.507601141929626465e-01 6.500000000000000000e+01
3.860540866851806641e+00 -2.769808053970336914e+00 1.503747552633285522e-01 8.000000000000000000e+01
3.882825851440429688e+00 -2.803886175155639648e+00 1.509848982095718384e-01 6.800000000000000000e+01
3.890380382537841797e+00 -2.827543973922729492e+00 1.513060182332992554e-01 6.100000000000000000e+01
4.013219356536865234e+00 -2.935703039169311523e+00 1.539232134819030762e-01 1.000000000000000000e+01
7.326437950134277344e+00 -5.429192543029785156e+00 2.205088436603546143e-01 1.100000000000000000e+01
7.332188129425048828e+00 -5.468382835388183594e+00 2.209584265947341919e-01 1.500000000000000000e+01
7.322573661804199219e+00 -5.496254444122314453e+00 2.211029231548309326e-01 1.100000000000000000e+01
7.378275871276855469e+00 -5.573541641235351562e+00 2.225640565156936646e-01 1.000000000000000000e+01
7.458246231079101562e+00 -5.669981479644775391e+00 2.245229333639144897e-01 1.500000000000000000e+01
7.520223617553710938e+00 -5.753596782684326172e+00 2.261285632848739624e-01 1.200000000000000000e+01
7.554030418395996094e+00 -5.816293716430664062e+00 2.271722257137298584e-01 1.200000000000000000e+01
7.635733127593994141e+00 -5.916612148284912109e+00 2.291953265666961670e-01 1.300000000000000000e+01
7.650660037994384766e+00 -5.965835571289062500e+00 2.298696935176849365e-01 1.600000000000000000e+01
7.842247962951660156e+00 -6.193003177642822266e+00 2.345420867204666138e-01 1.300000000000000000e+01
7.867045879364013672e+00 -6.251872062683105469e+00 2.354412376880645752e-01 8.000000000000000000e+00
7.971982955932617188e+00 -6.375276088714599609e+00 2.379941940307617188e-01 8.000000000000000000e+00
8.100382804870605469e+00 -6.518816471099853516e+00 2.410449087619781494e-01 7.000000000000000000e+00
8.036056518554687500e+00 -6.507767677307128906e+00 2.401296943426132202e-01 1.200000000000000000e+01
8.078058242797851562e+00 -6.582925319671630859e+00 2.414142042398452759e-01 1.300000000000000000e+01
8.345984458923339844e+00 -6.886934757232666016e+00 2.478367388248443604e-01 5.000000000000000000e+00
8.708509445190429688e+00 -7.321881294250488281e+00 2.567801177501678467e-01 8.000000000000000000e+00
8.686259269714355469e+00 -7.394623279571533203e+00 2.572618126869201660e-01 7.000000000000000000e+00
8.820713996887207031e+00 -7.555892467498779297e+00 2.605854570865631104e-01 3.100000000000000000e+01
8.900487899780273438e+00 -7.671703338623046875e+00 2.627691328525543213e-01 2.500000000000000000e+01
8.953952789306640625e+00 -7.765799522399902344e+00 2.644068896770477295e-01 2.800000000000000000e+01
9.153066635131835938e+00 -7.987843513488769531e+00 2.691595554351806641e-01 2.400000000000000000e+01
9.246469497680664062e+00 -8.119471549987792969e+00 2.716803848743438721e-01 2.600000000000000000e+01
9.261976242065429688e+00 -8.183553695678710938e+00 2.725474536418914795e-01 2.700000000000000000e+01
9.342931747436523438e+00 -8.306271553039550781e+00 2.748274505138397217e-01 3.100000000000000000e+01
9.493268966674804688e+00 -8.492228507995605469e+00 2.786167263984680176e-01 2.900000000000000000e+01
9.513245582580566406e+00 -8.562788009643554688e+00 2.796122431755065918e-01 2.500000000000000000e+01
6.919505119323730469e+00 4.715148448944091797e+00 1.822691261768341064e-01 5.500000000000000000e+01
6.953517913818359375e+00 4.614400386810302734e+00 1.819075047969818115e-01 4.000000000000000000e+01
6.965971946716308594e+00 4.591944694519042969e+00 1.818816661834716797e-01 4.200000000000000000e+01
6.984210014343261719e+00 4.573290824890136719e+00 1.819462478160858154e-01 2.600000000000000000e+01
6.997369289398193359e+00 4.551296710968017578e+00 1.819333285093307495e-01 3.400000000000000000e+01
7.022218227386474609e+00 4.536861419677734375e+00 1.821012198925018311e-01 4.400000000000000000e+01
7.062191963195800781e+00 4.532037258148193359e+00 1.825015991926193237e-01 3.300000000000000000e+01
7.098315715789794922e+00 4.493967533111572266e+00 1.826307475566864014e-01 3.400000000000000000e+01
7.121380805969238281e+00 4.478024005889892578e+00 1.827728152275085449e-01 2.700000000000000000e+01
7.169826507568359375e+00 4.386643409729003906e+00 1.826824098825454712e-01 2.500000000000000000e+01
7.219141483306884766e+00 4.386433124542236328e+00 1.832248419523239136e-01 2.100000000000000000e+01
7.217154502868652344e+00 4.354965686798095703e+00 1.829923689365386963e-01 2.100000000000000000e+01
7.202176570892333984e+00 4.315842628479003906e+00 1.825661659240722656e-01 2.200000000000000000e+01
7.241162300109863281e+00 4.309066295623779297e+00 1.829536259174346924e-01 2.000000000000000000e+01
7.258652687072753906e+00 4.289373874664306641e+00 1.830181926488876343e-01 2.100000000000000000e+01
7.284714221954345703e+00 4.274674892425537109e+00 1.832119226455688477e-01 2.000000000000000000e+01
7.264964103698730469e+00 4.233176708221435547e+00 1.827211529016494751e-01 2.700000000000000000e+01
7.296957969665527344e+00 4.221884727478027344e+00 1.830052733421325684e-01 1.800000000000000000e+01
7.284732341766357422e+00 4.185033321380615234e+00 1.826307475566864014e-01 2.600000000000000000e+01
7.303617477416992188e+00 4.166132450103759766e+00 1.827211529016494751e-01 2.700000000000000000e+01
7.342466831207275391e+00 4.158488273620605469e+00 1.831085979938507080e-01 2.400000000000000000e+01
7.355190277099609375e+00 4.135942459106445312e+00 1.831085979938507080e-01 1.700000000000000000e+01
7.372210025787353516e+00 4.115794658660888672e+00 1.831731796264648438e-01 2.500000000000000000e+01
7.390049934387207031e+00 4.096065998077392578e+00 1.832506656646728516e-01 2.100000000000000000e+01
7.385060310363769531e+00 4.063733577728271484e+00 1.829923689365386963e-01 1.900000000000000000e+01
7.408900737762451172e+00 4.047288894653320312e+00 1.831602603197097778e-01 1.400000000000000000e+01
7.394033908843994141e+00 4.009763240814208984e+00 1.827598959207534790e-01 2.300000000000000000e+01
7.407181739807128906e+00 3.987533807754516602e+00 1.827728152275085449e-01 2.100000000000000000e+01
7.467885017395019531e+00 3.990709066390991211e+00 1.834831386804580688e-01 1.700000000000000000e+01
7.436809062957763672e+00 3.944820404052734375e+00 1.828503012657165527e-01 2.400000000000000000e+01
7.470996379852294922e+00 3.933631896972656250e+00 1.831731796264648438e-01 2.300000000000000000e+01
7.483915328979492188e+00 3.911155700683593750e+00 1.831860840320587158e-01 1.800000000000000000e+01
7.497654914855957031e+00 3.889097929000854492e+00 1.832119226455688477e-01 2.300000000000000000e+01
7.506884098052978516e+00 3.864704132080078125e+00 1.831731796264648438e-01 1.500000000000000000e+01
7.533842563629150391e+00 3.849389076232910156e+00 1.833927333354949951e-01 1.900000000000000000e+01
7.550967693328857422e+00 3.828970670700073242e+00 1.834702193737030029e-01 2.700000000000000000e+01
7.569825172424316406e+00 3.809382200241088867e+00 1.835735440254211426e-01 2.100000000000000000e+01
7.588633060455322266e+00 3.789714336395263672e+00 1.836768686771392822e-01 1.900000000000000000e+01
7.607391834259033203e+00 3.769966602325439453e+00 1.837801784276962280e-01 1.600000000000000000e+01
7.635073661804199219e+00 3.754551887512207031e+00 1.840126514434814453e-01 2.600000000000000000e+01
7.630380630493164062e+00 3.723217487335205078e+00 1.837801784276962280e-01 2.100000000000000000e+01
7.642667293548583984e+00 3.700226068496704102e+00 1.837930977344512939e-01 1.900000000000000000e+01
7.690036296844482422e+00 3.694079399108886719e+00 1.843097060918807983e-01 1.500000000000000000e+01
7.686891078948974609e+00 3.663586378097534180e+00 1.841030567884445190e-01 1.500000000000000000e+01
7.706230640411376953e+00 3.643832683563232422e+00 1.842193007469177246e-01 1.900000000000000000e+01
7.730047225952148438e+00 3.626118183135986328e+00 1.844001114368438721e-01 3.200000000000000000e+01
7.738415718078613281e+00 3.601119995117187500e+00 1.843613684177398682e-01 1.500000000000000000e+01
7.758505821228027344e+00 3.581552743911743164e+00 1.844905167818069458e-01 2.100000000000000000e+01
7.761275291442871094e+00 3.553986549377441406e+00 1.843742728233337402e-01 1.800000000000000000e+01
7.780335903167724609e+00 3.533879995346069336e+00 1.844905167818069458e-01 1.700000000000000000e+01
7.781112670898437500e+00 3.505475997924804688e+00 1.843484491109848022e-01 2.100000000000000000e+01
7.837477684020996094e+00 3.501982212066650391e+00 1.849942058324813843e-01 1.500000000000000000e+01
7.840870857238769531e+00 3.474679946899414062e+00 1.848908811807632446e-01 2.000000000000000000e+01
7.836847782135009766e+00 3.444171428680419922e+00 1.846842467784881592e-01 1.500000000000000000e+01
7.844627380371093750e+00 3.418913841247558594e+00 1.846454888582229614e-01 1.700000000000000000e+01
7.862422466278076172e+00 3.398004055023193359e+00 1.847488135099411011e-01 2.100000000000000000e+01
7.883839607238769531e+00 3.378592729568481445e+00 1.849038004875183105e-01 2.600000000000000000e+01
7.908892154693603516e+00 3.360646009445190430e+00 1.851104348897933960e-01 2.000000000000000000e+01
7.923772811889648438e+00 3.338306903839111328e+00 1.851750165224075317e-01 1.500000000000000000e+01
7.907219886779785156e+00 3.302805662155151367e+00 1.848004758358001709e-01 1.700000000000000000e+01
7.910848617553710938e+00 3.275853395462036133e+00 1.847100704908370972e-01 1.800000000000000000e+01
7.968037605285644531e+00 3.270932674407958984e+00 1.853687465190887451e-01 1.600000000000000000e+01
7.949323654174804688e+00 3.234788894653320312e+00 1.849683672189712524e-01 2.300000000000000000e+01
7.958282947540283203e+00 3.210011482238769531e+00 1.849554628133773804e-01 1.000000000000000000e+01
7.999661922454833984e+00 3.198200702667236328e+00 1.853945702314376831e-01 1.600000000000000000e+01
8.033605575561523438e+00 3.183219432830810547e+00 1.857303678989410400e-01 1.300000000000000000e+01
8.026580810546875000e+00 3.151979207992553711e+00 1.854978948831558228e-01 7.000000000000000000e+00
8.061372756958007812e+00 3.137129783630371094e+00 1.858465969562530518e-01 9.000000000000000000e+00
8.062562942504882812e+00 3.109145164489746094e+00 1.857303678989410400e-01 1.600000000000000000e+01
8.069261550903320312e+00 3.083324432373046875e+00 1.856916099786758423e-01 1.200000000000000000e+01
8.036602020263671875e+00 3.042622804641723633e+00 1.851104348897933960e-01 1.000000000000000000e+01
8.027173995971679688e+00 3.010929346084594727e+00 1.848521381616592407e-01 1.500000000000000000e+01
7.984088897705078125e+00 2.911232709884643555e+00 1.838835030794143677e-01 5.000000000000000000e+00
8.459357261657714844e+00 2.880263566970825195e+00 1.895403116941452026e-01 7.000000000000000000e+00
8.358277320861816406e+00 2.760269165039062500e+00 1.878096908330917358e-01 5.000000000000000000e+00
8.322985649108886719e+00 2.720324516296386719e+00 1.872155964374542236e-01 4.000000000000000000e+00
8.342709541320800781e+00 2.698469638824462891e+00 1.873705834150314331e-01 7.000000000000000000e+00
8.312855720520019531e+00 2.660670280456542969e+00 1.868539750576019287e-01 1.500000000000000000e+01
8.259016990661621094e+00 2.615532875061035156e+00 1.860144883394241333e-01 5.200000000000000000e+01
8.236468315124511719e+00 2.580616235733032227e+00 1.856012046337127686e-01 9.600000000000000000e+01
8.219514846801757812e+00 2.547638654708862305e+00 1.852654218673706055e-01 6.600000000000000000e+01
8.198612213134765625e+00 2.513617038726806641e+00 1.848779618740081787e-01 7.200000000000000000e+01
8.258913993835449219e+00 2.504410266876220703e+00 1.855883002281188965e-01 5.580000000000000000e+02
8.142046928405761719e+00 2.441723346710205078e+00 1.839093416929244995e-01 5.400000000000000000e+01
8.096774101257324219e+00 2.401097774505615234e+00 1.831990033388137817e-01 6.900000000000000000e+01
8.052288055419921875e+00 2.361054182052612305e+00 1.825015991926193237e-01 7.800000000000000000e+01
7.983623504638671875e+00 2.314347028732299805e+00 1.814813017845153809e-01 1.140000000000000000e+02
8.036825180053710938e+00 2.303063392639160156e+00 1.821012198925018311e-01 9.300000000000000000e+01
8.032308578491210938e+00 2.275126218795776367e+00 1.819462478160858154e-01 1.340000000000000000e+02
8.033473014831542969e+00 2.248855590820312500e+00 1.818687468767166138e-01 1.120000000000000000e+02
8.066355705261230469e+00 2.231396198272705078e+00 1.822174638509750366e-01 1.110000000000000000e+02
8.082808494567871094e+00 2.209274530410766602e+00 1.823466122150421143e-01 1.150000000000000000e+02
8.117543220520019531e+00 2.192025423049926758e+00 1.827211529016494751e-01 8.900000000000000000e+01
8.122298240661621094e+00 2.166595458984375000e+00 1.826953142881393433e-01 1.220000000000000000e+02
8.139542579650878906e+00 2.144468545913696289e+00 1.828373819589614868e-01 1.130000000000000000e+02
8.160599708557128906e+00 2.123262882232666016e+00 1.830311119556427002e-01 1.110000000000000000e+02
8.174822807312011719e+00 2.100206851959228516e+00 1.831344366073608398e-01 9.400000000000000000e+01
8.179288864135742188e+00 2.074625492095947266e+00 1.831085979938507080e-01 1.150000000000000000e+02
8.192405700683593750e+00 2.051221847534179688e+00 1.831990033388137817e-01 8.600000000000000000e+01
8.202543258666992188e+00 2.027037858963012695e+00 1.832506656646728516e-01 9.300000000000000000e+01
8.213580131530761719e+00 2.003047704696655273e+00 1.833152472972869873e-01 1.100000000000000000e+02
8.221631050109863281e+00 1.978307127952575684e+00 1.833410710096359253e-01 1.180000000000000000e+02
8.241282463073730469e+00 1.956307053565979004e+00 1.835218816995620728e-01 6.600000000000000000e+01
8.288136482238769531e+00 1.940587282180786133e+00 1.840643137693405151e-01 3.300000000000000000e+01
8.270668029785156250e+00 1.909751772880554199e+00 1.837543547153472900e-01 2.600000000000000000e+01
8.291112899780273438e+00 1.887698054313659668e+00 1.839480847120285034e-01 4.000000000000000000e+01
8.320281028747558594e+00 1.867507576942443848e+00 1.842580437660217285e-01 4.900000000000000000e+01
8.311326026916503906e+00 1.838732957839965820e+00 1.840643137693405151e-01 4.000000000000000000e+01
8.361868858337402344e+00 1.823022365570068359e+00 1.846584081649780273e-01 1.780000000000000000e+02
8.302899360656738281e+00 1.783501505851745605e+00 1.838060170412063599e-01 2.700000000000000000e+01
8.365568161010742188e+00 1.743332862854003906e+00 1.844905167818069458e-01 3.800000000000000000e+01
6.454951286315917969e+00 1.324561595916748047e+00 1.592286229133605957e-01 1.000000000000000000e+01
6.476626873016357422e+00 1.308315157890319824e+00 1.594610959291458130e-01 8.300000000000000000e+01
6.498263359069824219e+00 1.291948199272155762e+00 1.596935689449310303e-01 1.010000000000000000e+02
6.439391613006591797e+00 1.259721159934997559e+00 1.588670015335083008e-01 1.080000000000000000e+02
6.411805152893066406e+00 1.233913540840148926e+00 1.584537178277969360e-01 7.800000000000000000e+01
6.394928455352783203e+00 1.210332274436950684e+00 1.581825017929077148e-01 1.020000000000000000e+02
6.374035358428955078e+00 1.186134457588195801e+00 1.578596234321594238e-01 1.890000000000000000e+02
6.385513305664062500e+00 1.168012738227844238e+00 1.579629480838775635e-01 1.890000000000000000e+02
6.385130405426025391e+00 1.147709250450134277e+00 1.579112857580184937e-01 1.820000000000000000e+02
6.389605998992919922e+00 1.128288507461547852e+00 1.579242050647735596e-01 1.830000000000000000e+02
6.395007610321044922e+00 1.109021782875061035e+00 1.579500287771224976e-01 2.050000000000000000e+02
6.403308868408203125e+00 1.090235948562622070e+00 1.580146104097366333e-01 2.350000000000000000e+02
6.423389911651611328e+00 1.073387026786804199e+00 1.582341641187667847e-01 1.030000000000000000e+02
6.313176631927490234e+00 1.035073518753051758e+00 1.567489206790924072e-01 7.600000000000000000e+01
6.289667129516601562e+00 1.011414527893066406e+00 1.564002186059951782e-01 6.800000000000000000e+01
6.306568622589111328e+00 9.942930936813354492e-01 1.565810292959213257e-01 7.600000000000000000e+01
6.265120506286621094e+00 9.680701494216918945e-01 1.559998542070388794e-01 8.200000000000000000e+01
6.187979698181152344e+00 9.367241859436035156e-01 1.549537330865859985e-01 6.300000000000000000e+01
6.120597839355468750e+00 9.073267579078674316e-01 1.540367603302001953e-01 4.600000000000000000e+01
6.118404865264892578e+00 8.878269195556640625e-01 1.539721935987472534e-01 5.800000000000000000e+01
6.043880462646484375e+00 8.580905795097351074e-01 1.529648154973983765e-01 6.500000000000000000e+01
6.044503688812255859e+00 8.392692208290100098e-01 1.529389768838882446e-01 5.600000000000000000e+01
6.042095661163330078e+00 8.200486898422241211e-01 1.528744101524353027e-01 5.500000000000000000e+01
5.979161262512207031e+00 7.928348779678344727e-01 1.520220041275024414e-01 5.700000000000000000e+01
5.961732387542724609e+00 7.719199657440185547e-01 1.517637073993682861e-01 4.700000000000000000e+01
5.926375389099121094e+00 7.488636374473571777e-01 1.512729376554489136e-01 6.900000000000000000e+01
5.900857448577880859e+00 7.272543907165527344e-01 1.509113162755966187e-01 5.800000000000000000e+01
5.840515613555908203e+00 7.016354799270629883e-01 1.500976681709289551e-01 6.400000000000000000e+01
5.831716537475585938e+00 6.824356913566589355e-01 1.499556005001068115e-01 6.200000000000000000e+01
5.805964946746826172e+00 6.613730192184448242e-01 1.495939791202545166e-01 5.900000000000000000e+01
5.750323772430419922e+00 6.371720433235168457e-01 1.488448977470397949e-01 5.700000000000000000e+01
5.761198997497558594e+00 6.204906702041625977e-01 1.489611417055130005e-01 6.000000000000000000e+01
5.737218856811523438e+00 6.001088023185729980e-01 1.486253440380096436e-01 6.100000000000000000e+01
5.696256160736083984e+00 5.781639218330383301e-01 1.480699926614761353e-01 5.500000000000000000e+01
5.692032337188720703e+00 5.600979924201965332e-01 1.479925066232681274e-01 6.500000000000000000e+01
5.661870956420898438e+00 5.395976901054382324e-01 1.475792229175567627e-01 4.100000000000000000e+01
5.629646301269531250e+00 5.191042423248291016e-01 1.471401154994964600e-01 5.100000000000000000e+01
5.583405494689941406e+00 4.975713789463043213e-01 1.465201824903488159e-01 6.200000000000000000e+01
5.551033496856689453e+00 4.775266051292419434e-01 1.460810750722885132e-01 4.600000000000000000e+01
5.529552936553955078e+00 4.585939049720764160e-01 1.457840204238891602e-01 6.200000000000000000e+01
5.507011890411376953e+00 4.397179484367370605e-01 1.454740613698959351e-01 5.500000000000000000e+01
5.487398624420166016e+00 4.212141633033752441e-01 1.452028453350067139e-01 4.600000000000000000e+01
5.470715045928955078e+00 4.030551910400390625e-01 1.449703723192214966e-01 6.800000000000000000e+01
5.430033683776855469e+00 3.833134472370147705e-01 1.444279402494430542e-01 6.500000000000000000e+01
5.389282703399658203e+00 3.638251423835754395e-01 1.438855081796646118e-01 5.300000000000000000e+01
5.370416641235351562e+00 3.460041880607604980e-01 1.436272114515304565e-01 6.100000000000000000e+01
5.282627105712890625e+00 3.240799307823181152e-01 1.424777656793594360e-01 6.200000000000000000e+01
5.270619392395019531e+00 3.071157932281494141e-01 1.423098742961883545e-01 6.000000000000000000e+01
5.238589763641357422e+00 2.891269922256469727e-01 1.418836712837219238e-01 7.200000000000000000e+01
5.235457897186279297e+00 2.728458344936370850e-01 1.418320089578628540e-01 6.300000000000000000e+01
5.221289634704589844e+00 2.560482323169708252e-01 1.416382938623428345e-01 6.800000000000000000e+01
5.199076652526855469e+00 2.389731109142303467e-01 1.413412392139434814e-01 7.500000000000000000e+01
5.190794467926025391e+00 2.226361036300659180e-01 1.412250101566314697e-01 7.500000000000000000e+01
5.167473793029785156e+00 2.057559341192245483e-01 1.409150362014770508e-01 7.900000000000000000e+01
5.138103485107421875e+00 1.888008415699005127e-01 1.405275911092758179e-01 8.700000000000000000e+01
5.100683212280273438e+00 1.717589795589447021e-01 1.400368213653564453e-01 7.700000000000000000e+01
5.096189022064208984e+00 1.559567302465438843e-01 1.399722397327423096e-01 8.800000000000000000e+01
5.083649635314941406e+00 1.399637907743453979e-01 1.398043483495712280e-01 9.800000000000000000e+01
4.997088432312011719e+00 1.222422420978546143e-01 1.386807411909103394e-01 1.050000000000000000e+02
5.051423072814941406e+00 1.080638468265533447e-01 1.393781453371047974e-01 8.700000000000000000e+01
4.988746643066406250e+00 9.141381829977035522e-02 1.385644972324371338e-01 1.050000000000000000e+02
4.992002964019775391e+00 7.615378499031066895e-02 1.386032402515411377e-01 1.230000000000000000e+02
4.974215984344482422e+00 6.061946973204612732e-02 1.383707672357559204e-01 9.700000000000000000e+01
4.922384738922119141e+00 4.488618671894073486e-02 1.376991868019104004e-01 1.200000000000000000e+02
4.899501800537109375e+00 2.964595891535282135e-02 1.374021470546722412e-01 1.230000000000000000e+02
4.871572017669677734e+00 1.453182380646467209e-02 1.370405256748199463e-01 1.380000000000000000e+02
4.844595909118652344e+00 -4.107776912860572338e-04 1.366918087005615234e-01 1.220000000000000000e+02
4.831573009490966797e+00 -1.523234695196151733e-02 1.365239173173904419e-01 1.390000000000000000e+02
4.831503391265869141e+00 -3.005533292889595032e-02 1.365239173173904419e-01 1.370000000000000000e+02
4.815390586853027344e+00 -4.472886770963668823e-02 1.363172829151153564e-01 1.460000000000000000e+02
4.804232597351074219e+00 -5.936577171087265015e-02 1.361752152442932129e-01 1.390000000000000000e+02
4.792030334472656250e+00 -7.391917705535888672e-02 1.360202282667160034e-01 1.640000000000000000e+02
4.758789539337158203e+00 -8.800923824310302734e-02 1.355940252542495728e-01 1.770000000000000000e+02
4.746500968933105469e+00 -1.023494750261306763e-01 1.354390531778335571e-01 1.770000000000000000e+02
4.723173141479492188e+00 -1.163438931107521057e-01 1.351419985294342041e-01 1.830000000000000000e+02
4.695806980133056641e+00 -1.300852447748184204e-01 1.347932964563369751e-01 1.950000000000000000e+02
4.666401863098144531e+00 -1.435981839895248413e-01 1.344187557697296143e-01 2.110000000000000000e+02
4.642954349517822266e+00 -1.571350991725921631e-01 1.341217160224914551e-01 1.940000000000000000e+02
4.635455608367919922e+00 -1.711202710866928101e-01 1.340313106775283813e-01 1.960000000000000000e+02
4.639904499053955078e+00 -1.855407953262329102e-01 1.340958774089813232e-01 2.020000000000000000e+02
4.611341953277587891e+00 -1.985694169998168945e-01 1.337342560291290283e-01 2.020000000000000000e+02
4.584740638732910156e+00 -2.115167826414108276e-01 1.333984732627868652e-01 2.200000000000000000e+02
4.566093444824218750e+00 -2.246962636709213257e-01 1.331660002470016479e-01 2.060000000000000000e+02
4.548407077789306641e+00 -2.378155887126922607e-01 1.329464465379714966e-01 2.200000000000000000e+02
4.541666030883789062e+00 -2.514369189739227295e-01 1.328689455986022949e-01 2.300000000000000000e+02
4.536880493164062500e+00 -2.651358842849731445e-01 1.328172832727432251e-01 2.060000000000000000e+02
4.520077228546142578e+00 -2.780706286430358887e-01 1.326106488704681396e-01 2.450000000000000000e+02
4.511219978332519531e+00 -2.914207279682159424e-01 1.325073242187500000e-01 2.510000000000000000e+02
4.477383136749267578e+00 -3.030301630496978760e-01 1.320811361074447632e-01 2.620000000000000000e+02
4.455486297607421875e+00 -3.152821958065032959e-01 1.318099200725555420e-01 2.720000000000000000e+02
4.433557033538818359e+00 -3.274027109146118164e-01 1.315387040376663208e-01 2.610000000000000000e+02
4.406610488891601562e+00 -3.390079438686370850e-01 1.312029063701629639e-01 2.140000000000000000e+02
4.401562690734863281e+00 -3.522064685821533203e-01 1.311512440443038940e-01 2.600000000000000000e+02
4.383521556854248047e+00 -3.643001019954681396e-01 1.309316903352737427e-01 2.820000000000000000e+02
4.360466480255126953e+00 -3.758568465709686279e-01 1.306475549936294556e-01 2.480000000000000000e+02
4.353316783905029297e+00 -3.886989951133728027e-01 1.305700689554214478e-01 2.860000000000000000e+02
4.343142986297607422e+00 -4.012247622013092041e-01 1.304538249969482422e-01 2.780000000000000000e+02
4.324969768524169922e+00 -4.129311740398406982e-01 1.302342712879180908e-01 3.080000000000000000e+02
4.293829917907714844e+00 -4.232542216777801514e-01 1.298468261957168579e-01 3.080000000000000000e+02
4.283558368682861328e+00 -4.355148673057556152e-01 1.297305822372436523e-01 2.960000000000000000e+02
4.272257328033447266e+00 -4.476122856140136719e-01 1.296014338731765747e-01 3.060000000000000000e+02
4.260922431945800781e+00 -4.596444368362426758e-01 1.294722855091094971e-01 3.210000000000000000e+02
4.241603374481201172e+00 -4.707286357879638672e-01 1.292398124933242798e-01 2.800000000000000000e+02
4.230204582214355469e+00 -4.826056659221649170e-01 1.291106641292572021e-01 2.940000000000000000e+02
4.210828304290771484e+00 -4.934857785701751709e-01 1.288781911134719849e-01 2.990000000000000000e+02
4.185468196868896484e+00 -5.035346746444702148e-01 1.285682320594787598e-01 2.950000000000000000e+02
4.167033195495605469e+00 -5.142903327941894531e-01 1.283486783504486084e-01 3.220000000000000000e+02
4.153532028198242188e+00 -5.255654454231262207e-01 1.281936913728713989e-01 3.390000000000000000e+02
4.144958496093750000e+00 -5.374055504798889160e-01 1.281032860279083252e-01 2.960000000000000000e+02
4.138334274291992188e+00 -5.494613647460937500e-01 1.280387043952941895e-01 3.050000000000000000e+02
4.121767044067382812e+00 -5.601346492767333984e-01 1.278449892997741699e-01 3.230000000000000000e+02
4.088336944580078125e+00 -5.683701634407043457e-01 1.274317055940628052e-01 2.770000000000000000e+02
4.077664375305175781e+00 -5.796434283256530762e-01 1.273154616355895996e-01 2.960000000000000000e+02
4.064981937408447266e+00 -5.905689597129821777e-01 1.271733939647674561e-01 3.110000000000000000e+02
4.053260326385498047e+00 -6.015689969062805176e-01 1.270442456007003784e-01 3.060000000000000000e+02
4.044475078582763672e+00 -6.129523515701293945e-01 1.269538402557373047e-01 3.050000000000000000e+02
4.036646842956542969e+00 -6.244403123855590820e-01 1.268763542175292969e-01 3.070000000000000000e+02
4.019896507263183594e+00 -6.344826221466064453e-01 1.266826242208480835e-01 3.020000000000000000e+02
4.000161647796630859e+00 -6.439511775970458984e-01 1.264501512050628662e-01 2.770000000000000000e+02
3.986326694488525391e+00 -6.542765498161315918e-01 1.262951791286468506e-01 2.890000000000000000e+02
3.970493793487548828e+00 -6.641930937767028809e-01 1.261143684387207031e-01 2.670000000000000000e+02
3.953651905059814453e+00 -6.738506555557250977e-01 1.259206384420394897e-01 2.980000000000000000e+02
3.947625398635864258e+00 -6.852928400039672852e-01 1.258689761161804199e-01 2.790000000000000000e+02
3.918918848037719727e+00 -6.927003860473632812e-01 1.255202740430831909e-01 2.840000000000000000e+02
3.905950069427490234e+00 -7.027720212936401367e-01 1.253782063722610474e-01 2.890000000000000000e+02
3.905742645263671875e+00 -7.151122689247131348e-01 1.254040300846099854e-01 2.770000000000000000e+02
3.900581359863281250e+00 -7.265421152114868164e-01 1.253652870655059814e-01 3.180000000000000000e+02
3.906193494796752930e+00 -7.399947643280029297e-01 1.254686117172241211e-01 3.200000000000000000e+02
3.916669130325317383e+00 -7.544345259666442871e-01 1.256365031003952026e-01 3.240000000000000000e+02
3.918261051177978516e+00 -7.672159075736999512e-01 1.256881654262542725e-01 3.360000000000000000e+02
3.932560443878173828e+00 -7.825515866279602051e-01 1.259077191352844238e-01 3.390000000000000000e+02
3.944842338562011719e+00 -7.975858449935913086e-01 1.261014491319656372e-01 3.340000000000000000e+02
3.962945461273193359e+00 -8.139100074768066406e-01 1.263726651668548584e-01 3.540000000000000000e+02
3.982943058013916016e+00 -8.307611346244812012e-01 1.266697198152542114e-01 3.520000000000000000e+02
3.986244916915893555e+00 -8.442199826240539551e-01 1.267472058534622192e-01 3.170000000000000000e+02
3.992434263229370117e+00 -8.583375215530395508e-01 1.268634349107742310e-01 3.190000000000000000e+02
4.007366657257080078e+00 -8.744198679924011230e-01 1.270959079265594482e-01 3.670000000000000000e+02
4.010522842407226562e+00 -8.880074024200439453e-01 1.271733939647674561e-01 3.440000000000000000e+02
4.026315689086914062e+00 -9.044721722602844238e-01 1.274187862873077393e-01 3.200000000000000000e+02
4.040095329284667969e+00 -9.205977320671081543e-01 1.276383399963378906e-01 3.500000000000000000e+02
4.052839756011962891e+00 -9.365911483764648438e-01 1.278449892997741699e-01 3.210000000000000000e+02
4.056762218475341797e+00 -9.506178498268127441e-01 1.279353946447372437e-01 3.770000000000000000e+02
4.074255943298339844e+00 -9.679136276245117188e-01 1.282066106796264648e-01 3.510000000000000000e+02
4.086821079254150391e+00 -9.841549396514892578e-01 1.284132450819015503e-01 3.350000000000000000e+02
4.104181766510009766e+00 -1.001668095588684082e+00 1.286844611167907715e-01 3.420000000000000000e+02
4.117590904235839844e+00 -1.018336415290832520e+00 1.289040148258209229e-01 3.220000000000000000e+02
4.129965782165527344e+00 -1.034853458404541016e+00 1.291106641292572021e-01 3.310000000000000000e+02
4.143247604370117188e+00 -1.051702022552490234e+00 1.293302178382873535e-01 3.660000000000000000e+02
4.143875122070312500e+00 -1.065404534339904785e+00 1.293818801641464233e-01 3.550000000000000000e+02
4.155101776123046875e+00 -1.081892609596252441e+00 1.295756101608276367e-01 3.280000000000000000e+02
4.157564163208007812e+00 -1.096164941787719727e+00 1.296530961990356445e-01 3.230000000000000000e+02
4.176401138305664062e+00 -1.114847302436828613e+00 1.299501359462738037e-01 3.290000000000000000e+02
4.196128368377685547e+00 -1.133916378021240234e+00 1.302601099014282227e-01 3.190000000000000000e+02
4.201309680938720703e+00 -1.149159193038940430e+00 1.303763389587402344e-01 3.240000000000000000e+02
4.218001365661621094e+00 -1.167646169662475586e+00 1.306475549936294556e-01 3.240000000000000000e+02
4.227879047393798828e+00 -1.184358000755310059e+00 1.308283656835556030e-01 3.190000000000000000e+02
4.230959892272949219e+00 -1.199232339859008789e+00 1.309187710285186768e-01 3.000000000000000000e+02
4.221493721008300781e+00 -1.210553169250488281e+00 1.308412849903106689e-01 2.650000000000000000e+02
4.250410556793212891e+00 -1.232971549034118652e+00 1.312803924083709717e-01 3.070000000000000000e+02
4.252364635467529297e+00 -1.247695207595825195e+00 1.313578784465789795e-01 2.670000000000000000e+02
4.284943103790283203e+00 -1.271546363830566406e+00 1.318486630916595459e-01 2.590000000000000000e+02
4.297303199768066406e+00 -1.289572834968566895e+00 1.320682168006896973e-01 2.760000000000000000e+02
4.313419818878173828e+00 -1.308848619461059570e+00 1.323394328355789185e-01 2.390000000000000000e+02
4.327546596527099609e+00 -1.327648758888244629e+00 1.325848251581192017e-01 2.750000000000000000e+02
4.340643405914306641e+00 -1.346251487731933594e+00 1.328172832727432251e-01 2.610000000000000000e+02
4.350804805755615234e+00 -1.364049673080444336e+00 1.330110132694244385e-01 2.510000000000000000e+02
4.360897064208984375e+00 -1.381922721862792969e+00 1.332047432661056519e-01 2.370000000000000000e+02
4.377586841583251953e+00 -1.402005672454833984e+00 1.334888786077499390e-01 2.480000000000000000e+02
4.388485908508300781e+00 -1.420356273651123047e+00 1.336955130100250244e-01 2.180000000000000000e+02
4.392661094665527344e+00 -1.436611056327819824e+00 1.338117569684982300e-01 1.880000000000000000e+02
4.408170700073242188e+00 -1.456669926643371582e+00 1.340829730033874512e-01 2.070000000000000000e+02
4.424546718597412109e+00 -1.477154135704040527e+00 1.343670934438705444e-01 2.040000000000000000e+02
4.436100959777832031e+00 -1.496154427528381348e+00 1.345866620540618896e-01 2.030000000000000000e+02
4.445686817169189453e+00 -1.514594674110412598e+00 1.347803771495819092e-01 2.040000000000000000e+02
4.460874557495117188e+00 -1.535060048103332520e+00 1.350515931844711304e-01 2.050000000000000000e+02
4.481645107269287109e+00 -1.557602524757385254e+00 1.354003101587295532e-01 2.030000000000000000e+02
4.493828296661376953e+00 -1.577306151390075684e+00 1.356327831745147705e-01 1.790000000000000000e+02
4.505931854248046875e+00 -1.597099184989929199e+00 1.358652412891387939e-01 1.770000000000000000e+02
4.520781040191650391e+00 -1.617992043495178223e+00 1.361364573240280151e-01 1.560000000000000000e+02
4.536484241485595703e+00 -1.639330983161926270e+00 1.364205926656723022e-01 1.590000000000000000e+02
4.547402381896972656e+00 -1.659067630767822266e+00 1.366401463747024536e-01 1.540000000000000000e+02
4.547920703887939453e+00 -1.675084829330444336e+00 1.367176473140716553e-01 1.570000000000000000e+02
4.569939613342285156e+00 -1.699136376380920410e+00 1.370921730995178223e-01 1.340000000000000000e+02
4.595597743988037109e+00 -1.724744081497192383e+00 1.375183761119842529e-01 1.290000000000000000e+02
4.615531444549560547e+00 -1.748399734497070312e+00 1.378670781850814819e-01 1.180000000000000000e+02
4.616683483123779297e+00 -1.765051603317260742e+00 1.379574835300445557e-01 1.470000000000000000e+02
4.621508121490478516e+00 -1.783166766166687012e+00 1.380995512008666992e-01 1.200000000000000000e+02
4.657945156097412109e+00 -1.813664674758911133e+00 1.386807411909103394e-01 1.070000000000000000e+02
4.663527011871337891e+00 -1.832334876060485840e+00 1.388357132673263550e-01 1.150000000000000000e+02
4.685769081115722656e+00 -1.857690095901489258e+00 1.392231732606887817e-01 1.070000000000000000e+02
4.693973541259765625e+00 -1.877628087997436523e+00 1.394168883562088013e-01 9.800000000000000000e+01
4.731770992279052734e+00 -1.909609675407409668e+00 1.400239020586013794e-01 1.010000000000000000e+02
4.712924957275390625e+00 -1.918838262557983398e+00 1.398430913686752319e-01 1.000000000000000000e+02
4.773610591888427734e+00 -1.960643053054809570e+00 1.407729834318161011e-01 1.040000000000000000e+02
4.757411479949951172e+00 -1.971068620681762695e+00 1.406309157609939575e-01 9.700000000000000000e+01
4.735658168792724609e+00 -1.979099750518798828e+00 1.404113620519638062e-01 9.500000000000000000e+01
4.809725284576416016e+00 -2.027412176132202148e+00 1.415349692106246948e-01 9.000000000000000000e+01
4.832008361816406250e+00 -2.054287195205688477e+00 1.419353336095809937e-01 7.000000000000000000e+01
4.022486209869384766e+00 -1.724685311317443848e+00 1.306475549936294556e-01 5.500000000000000000e+01
4.130062580108642578e+00 -1.785835146903991699e+00 1.322361081838607788e-01 1.160000000000000000e+02
4.131896495819091797e+00 -1.801695108413696289e+00 1.323394328355789185e-01 1.250000000000000000e+02
4.130011081695556641e+00 -1.815973162651062012e+00 1.323910951614379883e-01 1.120000000000000000e+02
4.123506069183349609e+00 -1.828230023384094238e+00 1.323781758546829224e-01 1.190000000000000000e+02
4.118790626525878906e+00 -1.841280341148376465e+00 1.323910951614379883e-01 1.030000000000000000e+02
4.122238159179687500e+00 -1.858017086982727051e+00 1.325202435255050659e-01 1.160000000000000000e+02
4.116518497467041016e+00 -1.870655179023742676e+00 1.325202435255050659e-01 1.140000000000000000e+02
4.115304946899414062e+00 -1.885358214378356934e+00 1.325848251581192017e-01 1.090000000000000000e+02
4.117671489715576172e+00 -1.901748538017272949e+00 1.327010542154312134e-01 1.140000000000000000e+02
4.098220348358154297e+00 -1.908041357994079590e+00 1.325073242187500000e-01 1.130000000000000000e+02
4.094157695770263672e+00 -1.921455144882202148e+00 1.325331628322601318e-01 1.060000000000000000e+02
4.097281932830810547e+00 -1.938283085823059082e+00 1.326623111963272095e-01 1.000000000000000000e+02
4.103049278259277344e+00 -1.956439495086669922e+00 1.328302025794982910e-01 1.030000000000000000e+02
4.129471778869628906e+00 -1.984612226486206055e+00 1.332951486110687256e-01 1.090000000000000000e+02
4.114364624023437500e+00 -1.992912650108337402e+00 1.331660002470016479e-01 1.110000000000000000e+02
4.104637145996093750e+00 -2.003771305084228516e+00 1.331143379211425781e-01 8.900000000000000000e+01
4.116414070129394531e+00 -2.025183439254760742e+00 1.333726346492767334e-01 1.240000000000000000e+02
4.117348194122314453e+00 -2.041356563568115234e+00 1.334759593009948730e-01 9.000000000000000000e+01
4.109277248382568359e+00 -2.053084850311279297e+00 1.334501355886459351e-01 1.100000000000000000e+02
4.094027996063232422e+00 -2.061185359954833984e+00 1.333209723234176636e-01 1.000000000000000000e+02
4.093035697937011719e+00 -2.076450586318969727e+00 1.333984732627868652e-01 1.010000000000000000e+02
4.074181556701660156e+00 -2.082625865936279297e+00 1.332176625728607178e-01 1.000000000000000000e+02
4.065994739532470703e+00 -2.094199657440185547e+00 1.331918239593505859e-01 9.700000000000000000e+01
4.090613842010498047e+00 -2.122785329818725586e+00 1.336438506841659546e-01 7.600000000000000000e+01
4.052182674407958984e+00 -2.118645429611206055e+00 1.331789046525955200e-01 9.800000000000000000e+01
4.047432899475097656e+00 -2.131999492645263672e+00 1.332047432661056519e-01 9.200000000000000000e+01
4.025857925415039062e+00 -2.136437892913818359e+00 1.329851895570755005e-01 9.200000000000000000e+01
4.037802219390869141e+00 -2.158679723739624023e+00 1.332564055919647217e-01 1.090000000000000000e+02
4.048767089843750000e+00 -2.180540800094604492e+00 1.335147023200988770e-01 9.900000000000000000e+01
4.058757305145263672e+00 -2.202012300491333008e+00 1.337600946426391602e-01 8.300000000000000000e+01
4.063388824462890625e+00 -2.220688343048095703e+00 1.339279860258102417e-01 7.500000000000000000e+01
4.046921253204345703e+00 -2.227839469909667969e+00 1.337859183549880981e-01 7.500000000000000000e+01
4.054058551788330078e+00 -2.248003721237182617e+00 1.339925676584243774e-01 9.100000000000000000e+01
4.040159225463867188e+00 -2.256529808044433594e+00 1.338892430067062378e-01 7.900000000000000000e+01
4.018402099609375000e+00 -2.260579347610473633e+00 1.336696892976760864e-01 9.000000000000000000e+01
4.036676406860351562e+00 -2.287192821502685547e+00 1.340442150831222534e-01 7.700000000000000000e+01
4.010534763336181641e+00 -2.288662672042846680e+00 1.337600946426391602e-01 9.100000000000000000e+01
3.993091583251953125e+00 -2.294976472854614258e+00 1.336051076650619507e-01 9.400000000000000000e+01
3.999012708663940430e+00 -2.314730644226074219e+00 1.337988376617431641e-01 7.500000000000000000e+01
4.004849910736083984e+00 -2.334542512893676758e+00 1.339925676584243774e-01 7.700000000000000000e+01
4.016639232635498047e+00 -2.357955694198608398e+00 1.342766880989074707e-01 8.300000000000000000e+01
3.996475219726562500e+00 -2.362634181976318359e+00 1.340829730033874512e-01 6.900000000000000000e+01
4.004673004150390625e+00 -2.384091615676879883e+00 1.343154311180114746e-01 8.500000000000000000e+01
3.990478992462158203e+00 -2.392253160476684570e+00 1.342121213674545288e-01 8.300000000000000000e+01
4.017361640930175781e+00 -2.425156116485595703e+00 1.347287148237228394e-01 8.200000000000000000e+01
4.003067016601562500e+00 -2.433314561843872070e+00 1.346254050731658936e-01 8.800000000000000000e+01
4.001552581787109375e+00 -2.449238538742065430e+00 1.347158104181289673e-01 6.800000000000000000e+01
4.002532005310058594e+00 -2.466750144958496094e+00 1.348449587821960449e-01 7.400000000000000000e+01
3.998343467712402344e+00 -2.481127023696899414e+00 1.348966211080551147e-01 7.200000000000000000e+01
3.997496604919433594e+00 -2.497621059417724609e+00 1.349999308586120605e-01 6.300000000000000000e+01
3.983890771865844727e+00 -2.506146192550659180e+00 1.349095255136489868e-01 6.700000000000000000e+01
3.976183176040649414e+00 -2.518356800079345703e+00 1.349095255136489868e-01 8.500000000000000000e+01
3.958321332931518555e+00 -2.524091958999633789e+00 1.347545534372329712e-01 7.200000000000000000e+01
3.953924655914306641e+00 -2.538385152816772461e+00 1.348062157630920410e-01 8.000000000000000000e+01
3.947798013687133789e+00 -2.551589250564575195e+00 1.348320394754409790e-01 5.800000000000000000e+01
3.939113140106201172e+00 -2.563143491744995117e+00 1.348191201686859131e-01 7.700000000000000000e+01
3.933740139007568359e+00 -2.576860189437866211e+00 1.348578780889511108e-01 5.300000000000000000e+01
3.929154872894287109e+00 -2.591118812561035156e+00 1.349095255136489868e-01 6.700000000000000000e+01
3.921186923980712891e+00 -2.603161096572875977e+00 1.349095255136489868e-01 7.200000000000000000e+01
3.912350654602050781e+00 -2.614623069763183594e+00 1.348966211080551147e-01 5.900000000000000000e+01
3.911777496337890625e+00 -2.631637334823608398e+00 1.350128501653671265e-01 8.100000000000000000e+01
3.908652782440185547e+00 -2.646990299224853516e+00 1.350903362035751343e-01 7.000000000000000000e+01
3.914558649063110352e+00 -2.668544769287109375e+00 1.353099048137664795e-01 6.800000000000000000e+01
3.911299943923950195e+00 -2.683936595916748047e+00 1.353873908519744873e-01 7.400000000000000000e+01
3.906338214874267578e+00 -2.698196887969970703e+00 1.354390531778335571e-01 8.400000000000000000e+01
3.915282011032104492e+00 -2.722156286239624023e+00 1.357102692127227783e-01 7.900000000000000000e+01
3.901177644729614258e+00 -2.730141878128051758e+00 1.356198638677597046e-01 5.000000000000000000e+01
3.910767316818237305e+00 -2.754766464233398438e+00 1.359039992094039917e-01 7.300000000000000000e+01
3.882721185684204102e+00 -2.752871036529541016e+00 1.355940252542495728e-01 4.900000000000000000e+01
3.897046327590942383e+00 -2.781034231185913086e+00 1.359556466341018677e-01 6.500000000000000000e+01
3.859259843826293945e+00 -2.771976232528686523e+00 1.354907155036926270e-01 6.500000000000000000e+01
3.894494533538818359e+00 -2.815438747406005859e+00 1.361881196498870850e-01 6.200000000000000000e+01
3.896349430084228516e+00 -2.835021972656250000e+00 1.363560259342193604e-01 6.100000000000000000e+01
3.991698741912841797e+00 -2.923176765441894531e+00 1.380220651626586914e-01 1.000000000000000000e+01
7.314454555511474609e+00 -5.425917625427246094e+00 1.917487829923629761e-01 1.700000000000000000e+01
7.364276409149169922e+00 -5.497983455657958984e+00 1.928207427263259888e-01 1.100000000000000000e+01
7.505655288696289062e+00 -5.639482021331787109e+00 1.953779309988021851e-01 9.000000000000000000e+00
7.454821109771728516e+00 -5.637151718139648438e+00 1.948354840278625488e-01 1.100000000000000000e+01
7.494781494140625000e+00 -5.703596591949462891e+00 1.957653760910034180e-01 9.000000000000000000e+00
7.631591320037841797e+00 -5.919419765472412109e+00 1.988649964332580566e-01 8.000000000000000000e+00
7.728473186492919922e+00 -6.032635688781738281e+00 2.007505893707275391e-01 1.200000000000000000e+01
7.806645870208740234e+00 -6.132293701171875000e+00 2.023391574621200562e-01 9.000000000000000000e+00
7.728964328765869141e+00 -6.109707832336425781e+00 2.013705223798751831e-01 1.100000000000000000e+01
7.880770683288574219e+00 -6.269096851348876953e+00 2.041860073804855347e-01 5.000000000000000000e+00
7.925509452819824219e+00 -6.344487190246582031e+00 2.052450478076934814e-01 1.500000000000000000e+01
8.008792877197265625e+00 -6.451575279235839844e+00 2.069498300552368164e-01 7.000000000000000000e+00
8.214941978454589844e+00 -6.743257999420166016e+00 2.113926261663436890e-01 1.000000000000000000e+01
8.695397377014160156e+00 -7.318091869354248047e+00 2.209110260009765625e-01 7.000000000000000000e+00
8.889554023742675781e+00 -7.622366905212402344e+00 2.253667414188385010e-01 4.000000000000000000e+01
6.800277709960937500e+00 4.879183292388916016e+00 1.559672653675079346e-01 4.500000000000000000e+01
