# .PCD v.7 - Point Cloud Data file format
VERSION .7
FIELDS x y z intensity
SIZE 4 4 4 4
TYPE F F F F
COUNT 1 1 1 1
WIDTH 472
HEIGHT 1
VIEWPOINT 0 0 0 1 0 0 0
POINTS 472
DATA ascii
9.955204963684082031e+00 -6.962054729461669922e+00 -8.061484694480895996e-01 3.800000000000000000e+01
9.929720878601074219e+00 -6.989693641662597656e+00 -8.057866096496582031e-01 9.500000000000000000e+01
9.842311859130859375e+00 -6.973419189453125000e+00 -7.999248504638671875e-01 4.900000000000000000e+01
9.436779022216796875e+00 -6.729665279388427734e+00 -7.656948566436767578e-01 2.800000000000000000e+01
9.191647529602050781e+00 -6.597484111785888672e+00 -7.456489205360412598e-01 2.400000000000000000e+01
9.606318473815917969e+00 -6.939885616302490234e+00 -7.845828533172607422e-01 1.700000000000000000e+01
9.086460113525390625e+00 -6.606834411621093750e+00 -7.398595213890075684e-01 7.200000000000000000e+01
9.042806625366210938e+00 -6.617598533630371094e+00 -7.377608418464660645e-01 1.570000000000000000e+02
8.057991027832031250e+00 -5.934926986694335938e+00 -6.508470773696899414e-01 2.400000000000000000e+01
7.901131153106689453e+00 -5.856866836547851562e+00 -6.383274197578430176e-01 5.000000000000000000e+01
7.851948261260986328e+00 -5.857819557189941406e+00 -6.355050802230834961e-01 3.000000000000000000e+01
7.262075901031494141e+00 -5.452499389648437500e+00 -5.836173295974731445e-01 1.280000000000000000e+02
7.254862785339355469e+00 -5.481969356536865234e+00 -5.844857692718505859e-01 7.900000000000000000e+01
7.223720073699951172e+00 -5.493333816528320312e+00 -5.831831097602844238e-01 8.700000000000000000e+01
7.218713283538818359e+00 -5.524562358856201172e+00 -5.842686295509338379e-01 1.370000000000000000e+02
7.165382385253906250e+00 -5.518687725067138672e+00 -5.809397101402282715e-01 4.880000000000000000e+02
7.153935909271240234e+00 -5.544921875000000000e+00 -5.814462900161743164e-01 4.200000000000000000e+01
7.073976993560791016e+00 -5.517768859863281250e+00 -5.756568908691406250e-01 2.600000000000000000e+01
6.813809871673583984e+00 -5.348532199859619141e+00 -5.532228350639343262e-01 2.300000000000000000e+01
6.143863201141357422e+00 -4.853171348571777344e+00 -4.927956759929656982e-01 4.600000000000000000e+01
5.526623249053955078e+00 -4.476805210113525391e+00 -4.407632052898406982e-01 4.300000000000000000e+01
5.678298473358154297e+00 -4.628599166870117188e+00 -4.562499225139617920e-01 5.200000000000000000e+01
5.350993156433105469e+00 -4.389181137084960938e+00 -4.268685877323150635e-01 1.800000000000000000e+01
5.239815711975097656e+00 -4.324943065643310547e+00 -4.176778495311737061e-01 2.300000000000000000e+01
5.165143966674804688e+00 -4.290016174316406250e+00 -4.118884205818176270e-01 1.700000000000000000e+01
5.031044483184814453e+00 -4.204782009124755859e+00 -4.004543125629425049e-01 3.600000000000000000e+01
5.071552276611328125e+00 -4.265134811401367188e+00 -4.055200517177581787e-01 1.150000000000000000e+02
4.966321945190429688e+00 -4.202713012695312500e+00 -3.967635333538055420e-01 3.100000000000000000e+01
4.866078853607177734e+00 -4.143566131591796875e+00 -3.884412348270416260e-01 6.500000000000000000e+01
4.681421279907226562e+00 -4.011159896850585938e+00 -3.720137476921081543e-01 2.600000000000000000e+01
7.086859703063964844e+00 5.086684703826904297e+00 -5.805860161781311035e-01 3.300000000000000000e+01
7.088630199432373047e+00 5.055075645446777344e+00 -5.793114304542541504e-01 4.100000000000000000e+01
7.116310119628906250e+00 5.041951656341552734e+00 -5.804361104965209961e-01 4.400000000000000000e+01
7.057542324066162109e+00 4.967861175537109375e+00 -5.736130475997924805e-01 2.860000000000000000e+02
7.127501010894775391e+00 4.984476089477539062e+00 -5.786365866661071777e-01 2.800000000000000000e+01
7.116554260253906250e+00 4.944377899169921875e+00 -5.762372612953186035e-01 2.000000000000000000e+01
7.099881649017333984e+00 4.868473529815673828e+00 -5.719634890556335449e-01 5.200000000000000000e+01
8.331220626831054688e+00 5.638008594512939453e+00 -6.810575127601623535e-01 1.400000000000000000e+01
5.785842895507812500e+00 3.863860368728637695e+00 -4.477987289428710938e-01 8.000000000000000000e+00
5.643943786621093750e+00 3.744106531143188477e+00 -4.339276552200317383e-01 5.900000000000000000e+01
5.644579410552978516e+00 3.719640254974365234e+00 -4.329529404640197754e-01 1.710000000000000000e+02
5.706858158111572266e+00 3.735621213912963867e+00 -4.375266432762145996e-01 1.410000000000000000e+02
5.648068904876708984e+00 3.672432899475097656e+00 -4.312284290790557861e-01 1.580000000000000000e+02
5.669361114501953125e+00 3.661580085754394531e+00 -4.321281611919403076e-01 1.820000000000000000e+02
5.647834777832031250e+00 3.623169660568237305e+00 -4.292039871215820312e-01 1.540000000000000000e+02
5.642104625701904297e+00 3.595107555389404297e+00 -4.277044236660003662e-01 2.610000000000000000e+02
5.674172878265380859e+00 3.591113328933715820e+00 -4.295789003372192383e-01 2.930000000000000000e+02
5.690228939056396484e+00 3.576872587203979492e+00 -4.300287663936614990e-01 3.100000000000000000e+02
5.702867507934570312e+00 3.560454607009887695e+00 -4.301787316799163818e-01 2.610000000000000000e+02
5.715458869934082031e+00 3.543992757797241211e+00 -4.303286671638488770e-01 2.800000000000000000e+02
5.727153778076171875e+00 3.526964187622070312e+00 -4.304036498069763184e-01 2.900000000000000000e+02
5.652879714965820312e+00 3.457345962524414062e+00 -4.229057729244232178e-01 1.470000000000000000e+02
5.627664566040039062e+00 3.418243408203125000e+00 -4.197566807270050049e-01 1.330000000000000000e+02
5.632148265838623047e+00 3.397356271743774414e+00 -4.192318320274353027e-01 1.270000000000000000e+02
5.619447708129882812e+00 3.366224765777587891e+00 -4.172073900699615479e-01 1.310000000000000000e+02
5.618607997894287109e+00 3.342340946197509766e+00 -4.162326753139495850e-01 1.150000000000000000e+02
5.596210479736328125e+00 3.305813789367675781e+00 -4.133834838867187500e-01 1.240000000000000000e+02
5.585683345794677734e+00 3.276519775390625000e+00 -4.115839898586273193e-01 1.280000000000000000e+02
5.557796478271484375e+00 3.237283229827880859e+00 -4.082849323749542236e-01 1.040000000000000000e+02
5.540080070495605469e+00 3.204239845275878906e+00 -4.058856070041656494e-01 1.110000000000000000e+02
5.516160488128662109e+00 3.167859792709350586e+00 -4.029614329338073730e-01 9.000000000000000000e+01
5.506795883178710938e+00 3.140053987503051758e+00 -4.013119041919708252e-01 1.020000000000000000e+02
5.475619316101074219e+00 3.100053071975708008e+00 -3.977878987789154053e-01 8.400000000000000000e+01
5.438164710998535156e+00 3.056852579116821289e+00 -3.937390446662902832e-01 9.000000000000000000e+01
5.410945892333984375e+00 3.019742965698242188e+00 -3.905899524688720703e-01 1.120000000000000000e+02
5.409718036651611328e+00 2.997328519821166992e+00 -3.896902203559875488e-01 9.500000000000000000e+01
5.395298004150390625e+00 2.967740774154663086e+00 -3.876657783985137939e-01 1.030000000000000000e+02
5.359743118286132812e+00 2.926799058914184570e+00 -3.838418722152709961e-01 1.030000000000000000e+02
5.357300758361816406e+00 2.904163599014282227e+00 -3.828671276569366455e-01 9.900000000000000000e+01
5.355648517608642578e+00 2.882043123245239258e+00 -3.819673955440521240e-01 9.400000000000000000e+01
5.351272106170654297e+00 2.858550548553466797e+00 -3.808427155017852783e-01 9.000000000000000000e+01
5.341516017913818359e+00 2.832309246063232422e+00 -3.792681694030761719e-01 9.100000000000000000e+01
5.313118934631347656e+00 2.796400785446166992e+00 -3.761190474033355713e-01 1.040000000000000000e+02
5.281900405883789062e+00 2.759308338165283203e+00 -3.727450072765350342e-01 9.100000000000000000e+01
5.284144401550292969e+00 2.739877462387084961e+00 -3.722201585769653320e-01 1.180000000000000000e+02
5.240212917327880859e+00 2.696730136871337891e+00 -3.677964210510253906e-01 9.100000000000000000e+01
5.248461723327636719e+00 2.680640697479248047e+00 -3.677964210510253906e-01 7.600000000000000000e+01
5.222862720489501953e+00 2.647392749786376953e+00 -3.649472296237945557e-01 8.400000000000000000e+01
5.217597961425781250e+00 2.624634742736816406e+00 -3.638225495815277100e-01 9.400000000000000000e+01
5.208674430847167969e+00 2.600152254104614258e+00 -3.623979389667510986e-01 1.030000000000000000e+02
5.182672023773193359e+00 2.567338705062866211e+00 -3.595487475395202637e-01 8.300000000000000000e+01
5.113563060760498047e+00 2.513592958450317383e+00 -3.531005978584289551e-01 9.900000000000000000e+01
5.118561744689941406e+00 2.496581315994262695e+00 -3.528756499290466309e-01 1.090000000000000000e+02
5.092986583709716797e+00 2.464792490005493164e+00 -3.501014411449432373e-01 1.160000000000000000e+02
5.081647396087646484e+00 2.440090656280517578e+00 -3.485268950462341309e-01 7.900000000000000000e+01
5.079206943511962891e+00 2.419770956039428711e+00 -3.477021157741546631e-01 7.900000000000000000e+01
5.090212821960449219e+00 2.405881404876708984e+00 -3.480020463466644287e-01 1.010000000000000000e+02
5.074096202850341797e+00 2.379245758056640625e+00 -3.460525870323181152e-01 8.300000000000000000e+01
5.061480522155761719e+00 2.354413986206054688e+00 -3.444030582904815674e-01 1.060000000000000000e+02
5.032463073730468750e+00 2.322161436080932617e+00 -3.414039015769958496e-01 1.000000000000000000e+02
5.024149417877197266e+00 2.299655199050903320e+00 -3.401292562484741211e-01 1.060000000000000000e+02
5.020285606384277344e+00 2.279283285140991211e+00 -3.392295241355895996e-01 1.040000000000000000e+02
5.022708415985107422e+00 2.261823177337646484e+00 -3.388546407222747803e-01 8.500000000000000000e+01
4.991383552551269531e+00 2.229322195053100586e+00 -3.357055187225341797e-01 9.300000000000000000e+01
4.960818767547607422e+00 2.197438955307006836e+00 -3.326314091682434082e-01 9.300000000000000000e+01
4.945625782012939453e+00 2.172582626342773438e+00 -3.308319151401519775e-01 1.210000000000000000e+02
4.954096317291259766e+00 2.158196210861206055e+00 -3.309818506240844727e-01 9.500000000000000000e+01
4.931401252746582031e+00 2.130331516265869141e+00 -3.285825550556182861e-01 1.040000000000000000e+02
4.925997734069824219e+00 2.110087394714355469e+00 -3.276078104972839355e-01 1.080000000000000000e+02
4.926023483276367188e+00 2.092235803604125977e+00 -3.270829617977142334e-01 9.600000000000000000e+01
4.914039134979248047e+00 2.069372177124023438e+00 -3.255833983421325684e-01 9.300000000000000000e+01
4.873435020446777344e+00 2.034691333770751953e+00 -3.217594921588897705e-01 1.040000000000000000e+02
4.862148284912109375e+00 2.012483596801757812e+00 -3.203348815441131592e-01 1.200000000000000000e+02
4.848926544189453125e+00 1.989607453346252441e+00 -3.187603354454040527e-01 1.170000000000000000e+02
4.832839012145996094e+00 1.965704083442687988e+00 -3.169608414173126221e-01 1.480000000000000000e+02
4.826824188232421875e+00 1.946020245552062988e+00 -3.159861266613006592e-01 1.220000000000000000e+02
4.819808006286621094e+00 1.926021814346313477e+00 -3.149364292621612549e-01 1.220000000000000000e+02
4.792318344116210938e+00 1.898005962371826172e+00 -3.122371733188629150e-01 1.170000000000000000e+02
4.787908554077148438e+00 1.879286289215087891e+00 -3.114124238491058350e-01 1.340000000000000000e+02
4.817814350128173828e+00 1.873987913131713867e+00 -3.133618533611297607e-01 1.260000000000000000e+02
4.777948856353759766e+00 1.841623425483703613e+00 -3.096879124641418457e-01 1.450000000000000000e+02
4.789165973663330078e+00 1.829091191291809082e+00 -3.101377785205841064e-01 1.370000000000000000e+02
4.769573688507080078e+00 1.804859876632690430e+00 -3.081133663654327393e-01 1.370000000000000000e+02
4.744276046752929688e+00 1.778665542602539062e+00 -3.056390583515167236e-01 1.670000000000000000e+02
4.734754085540771484e+00 1.758546352386474609e+00 -3.044393956661224365e-01 1.740000000000000000e+02
4.712051868438720703e+00 1.733681440353393555e+00 -3.021900355815887451e-01 1.660000000000000000e+02
4.695799827575683594e+00 1.711362838745117188e+00 -3.004655241966247559e-01 1.660000000000000000e+02
4.694462776184082031e+00 1.694578051567077637e+00 -2.999406754970550537e-01 1.980000000000000000e+02
4.697761535644531250e+00 1.679496169090270996e+00 -2.997907102108001709e-01 1.790000000000000000e+02
4.689732074737548828e+00 1.660415887832641602e+00 -2.987410128116607666e-01 1.860000000000000000e+02
4.659045696258544922e+00 1.633481740951538086e+00 -2.958918213844299316e-01 1.970000000000000000e+02
4.664035320281982422e+00 1.619180321693420410e+00 -2.958918213844299316e-01 1.930000000000000000e+02
4.663322925567626953e+00 1.602918624877929688e+00 -2.954419553279876709e-01 2.070000000000000000e+02
4.635178089141845703e+00 1.577359199523925781e+00 -2.928176820278167725e-01 2.120000000000000000e+02
4.615425586700439453e+00 1.554853200912475586e+00 -2.908682525157928467e-01 2.080000000000000000e+02
4.602200984954833984e+00 1.534691810607910156e+00 -2.894436419010162354e-01 2.320000000000000000e+02
4.581320762634277344e+00 1.512125492095947266e+00 -2.874192297458648682e-01 2.120000000000000000e+02
4.571720123291015625e+00 1.493417978286743164e+00 -2.862945497035980225e-01 2.680000000000000000e+02
4.582921981811523438e+00 1.481532454490661621e+00 -2.868193984031677246e-01 2.140000000000000000e+02
4.580797195434570312e+00 1.465338349342346191e+00 -2.862945497035980225e-01 2.410000000000000000e+02
4.576714992523193359e+00 1.448569297790527344e+00 -2.856197357177734375e-01 2.540000000000000000e+02
4.552589416503906250e+00 1.425580739974975586e+00 -2.833703756332397461e-01 2.790000000000000000e+02
4.527413368225097656e+00 1.402458786964416504e+00 -2.810460329055786133e-01 2.900000000000000000e+02
4.524067401885986328e+00 1.386224865913391113e+00 -2.804462015628814697e-01 2.590000000000000000e+02
4.515892982482910156e+00 1.368578433990478516e+00 -2.794714868068695068e-01 2.940000000000000000e+02
4.512429237365722656e+00 1.352426886558532715e+00 -2.788716554641723633e-01 2.640000000000000000e+02
4.505084037780761719e+00 1.335175871849060059e+00 -2.779718935489654541e-01 2.910000000000000000e+02
4.497675895690917969e+00 1.317982792854309082e+00 -2.770721614360809326e-01 3.220000000000000000e+02
4.477753639221191406e+00 1.297240018844604492e+00 -2.751976847648620605e-01 2.790000000000000000e+02
4.468291282653808594e+00 1.279652237892150879e+00 -2.741479873657226562e-01 3.050000000000000000e+02
4.449169158935546875e+00 1.259418487548828125e+00 -2.723484933376312256e-01 2.940000000000000000e+02
4.441488265991210938e+00 1.242538452148437500e+00 -2.714487612247467041e-01 3.360000000000000000e+02
4.433745861053466797e+00 1.225717425346374512e+00 -2.705489993095397949e-01 3.310000000000000000e+02
4.418246746063232422e+00 1.206853270530700684e+00 -2.690494358539581299e-01 3.370000000000000000e+02
4.410375595092773438e+00 1.190174460411071777e+00 -2.681497037410736084e-01 3.640000000000000000e+02
4.407261848449707031e+00 1.174839854240417480e+00 -2.676248252391815186e-01 3.200000000000000000e+02
4.405059337615966797e+00 1.159789443016052246e+00 -2.671749591827392578e-01 3.630000000000000000e+02
4.403771400451660156e+00 1.145014643669128418e+00 -2.668000757694244385e-01 3.510000000000000000e+02
4.404366016387939453e+00 1.130754709243774414e+00 -2.665751278400421143e-01 3.960000000000000000e+02
4.387515544891357422e+00 1.112091064453125000e+00 -2.650005817413330078e-01 3.850000000000000000e+02
4.375429153442382812e+00 1.094751954078674316e+00 -2.638009190559387207e-01 3.950000000000000000e+02
4.368118286132812500e+00 1.078693032264709473e+00 -2.629761695861816406e-01 3.870000000000000000e+02
4.359780788421630859e+00 1.062453150749206543e+00 -2.620764076709747314e-01 3.870000000000000000e+02
4.347507476806640625e+00 1.045341968536376953e+00 -2.608767449855804443e-01 3.700000000000000000e+02
4.341961860656738281e+00 1.029927372932434082e+00 -2.602019309997558594e-01 4.130000000000000000e+02
4.332478523254394531e+00 1.013647913932800293e+00 -2.592272162437438965e-01 3.780000000000000000e+02
4.331681251525878906e+00 9.994543194770812988e-01 -2.589273154735565186e-01 4.110000000000000000e+02
4.329865455627441406e+00 9.850540161132812500e-01 -2.585524022579193115e-01 4.070000000000000000e+02
4.327029228210449219e+00 9.704559445381164551e-01 -2.581025362014770508e-01 3.950000000000000000e+02
4.326091766357421875e+00 9.563151597976684570e-01 -2.578026354312896729e-01 4.350000000000000000e+02
4.303672790527343750e+00 9.375188946723937988e-01 -2.558531761169433594e-01 4.410000000000000000e+02
4.288979053497314453e+00 9.205436706542968750e-01 -2.545035481452941895e-01 4.330000000000000000e+02
4.277149200439453125e+00 9.042863845825195312e-01 -2.533788681030273438e-01 4.390000000000000000e+02
4.268188476562500000e+00 8.887202739715576172e-01 -2.524791359901428223e-01 4.190000000000000000e+02
4.261126041412353516e+00 8.736183047294616699e-01 -2.517293393611907959e-01 4.140000000000000000e+02
4.254989147186279297e+00 8.587654232978820801e-01 -2.510545551776885986e-01 4.390000000000000000e+02
4.249779224395751953e+00 8.441526889801025391e-01 -2.504547238349914551e-01 4.260000000000000000e+02
4.248434543609619141e+00 8.303453326225280762e-01 -2.501547932624816895e-01 4.180000000000000000e+02
4.245086669921875000e+00 8.161775469779968262e-01 -2.497049272060394287e-01 4.470000000000000000e+02
4.257368564605712891e+00 8.050030469894409180e-01 -2.504547238349914551e-01 4.600000000000000000e+02
4.263740062713623047e+00 7.926670312881469727e-01 -2.507546246051788330e-01 3.880000000000000000e+02
4.281846523284912109e+00 7.824509739875793457e-01 -2.519542872905731201e-01 4.510000000000000000e+02
4.293060302734375000e+00 7.708973288536071777e-01 -2.526291012763977051e-01 4.020000000000000000e+02
4.301297187805175781e+00 7.587623596191406250e-01 -2.530789673328399658e-01 3.910000000000000000e+02
4.321290493011474609e+00 7.486271858215332031e-01 -2.544285953044891357e-01 3.940000000000000000e+02
4.348143577575683594e+00 7.395471334457397461e-01 -2.563030421733856201e-01 4.410000000000000000e+02
4.361211299896240234e+00 7.280102372169494629e-01 -2.571278214454650879e-01 4.370000000000000000e+02
4.376217365264892578e+00 7.167224287986755371e-01 -2.581025362014770508e-01 3.920000000000000000e+02
4.406947612762451172e+00 7.078804373741149902e-01 -2.602769136428833008e-01 3.640000000000000000e+02
4.426829338073730469e+00 6.971496939659118652e-01 -2.616265416145324707e-01 4.060000000000000000e+02
4.440773487091064453e+00 6.853908300399780273e-01 -2.625262737274169922e-01 4.030000000000000000e+02
4.451729297637939453e+00 6.731055378913879395e-01 -2.632010877132415771e-01 3.610000000000000000e+02
4.466596603393554688e+00 6.613438129425048828e-01 -2.641758322715759277e-01 3.740000000000000000e+02
4.493276596069335938e+00 6.512140035629272461e-01 -2.660502791404724121e-01 3.620000000000000000e+02
4.522897720336914062e+00 6.413468122482299805e-01 -2.681497037410736084e-01 4.000000000000000000e+02
4.533733367919921875e+00 6.287007927894592285e-01 -2.688244879245758057e-01 3.300000000000000000e+02
4.570226192474365234e+00 6.194776296615600586e-01 -2.714487612247467041e-01 3.560000000000000000e+02
4.579024791717529297e+00 6.063700914382934570e-01 -2.719736099243164062e-01 3.370000000000000000e+02
4.600642681121826172e+00 5.948771834373474121e-01 -2.734731733798980713e-01 3.530000000000000000e+02
4.616296768188476562e+00 5.825080871582031250e-01 -2.745228707790374756e-01 3.450000000000000000e+02
4.632907867431640625e+00 5.701702833175659180e-01 -2.756475508213043213e-01 2.950000000000000000e+02
4.647506237030029297e+00 5.574985146522521973e-01 -2.766222953796386719e-01 2.860000000000000000e+02
4.674946308135986328e+00 5.462474226951599121e-01 -2.785717248916625977e-01 2.610000000000000000e+02
4.695425510406494141e+00 5.340440869331359863e-01 -2.799963355064392090e-01 2.610000000000000000e+02
4.717855453491210938e+00 5.219395756721496582e-01 -2.815708816051483154e-01 2.550000000000000000e+02
4.735298156738281250e+00 5.091692209243774414e-01 -2.827705442905426025e-01 2.430000000000000000e+02
4.756673812866210938e+00 4.967111945152282715e-01 -2.842701077461242676e-01 2.250000000000000000e+02
4.783969879150390625e+00 4.847300946712493896e-01 -2.862195670604705811e-01 2.230000000000000000e+02
4.790396690368652344e+00 4.705383777618408203e-01 -2.865944504737854004e-01 1.880000000000000000e+02
4.811671733856201172e+00 4.577288031578063965e-01 -2.880940437316894531e-01 2.040000000000000000e+02
4.841849803924560547e+00 4.456159174442291260e-01 -2.902684211730957031e-01 1.720000000000000000e+02
4.863059520721435547e+00 4.325267374515533447e-01 -2.917679846286773682e-01 1.770000000000000000e+02
4.885227680206298828e+00 4.193969368934631348e-01 -2.933425307273864746e-01 1.780000000000000000e+02
4.908354282379150391e+00 4.062174558639526367e-01 -2.949920892715454102e-01 1.750000000000000000e+02
4.921505928039550781e+00 3.921076953411102295e-01 -2.958918213844299316e-01 1.380000000000000000e+02
4.927657127380371094e+00 3.773877918720245361e-01 -2.962667047977447510e-01 1.530000000000000000e+02
4.952659606933593750e+00 3.640232682228088379e-01 -2.980661988258361816e-01 1.120000000000000000e+02
4.993542194366455078e+00 3.516301512718200684e-01 -3.010653555393218994e-01 1.470000000000000000e+02
5.011511325836181641e+00 3.374479711055755615e-01 -3.023400008678436279e-01 1.380000000000000000e+02
5.074221134185791016e+00 3.260376155376434326e-01 -3.069886565208435059e-01 1.280000000000000000e+02
5.097094535827636719e+00 3.118088543415069580e-01 -3.086382150650024414e-01 1.290000000000000000e+02
5.124905586242675781e+00 2.977321147918701172e-01 -3.106626272201538086e-01 9.600000000000000000e+01
5.137742996215820312e+00 2.826654613018035889e-01 -3.115623593330383301e-01 1.130000000000000000e+02
5.151532173156738281e+00 2.675745785236358643e-01 -3.125371038913726807e-01 1.190000000000000000e+02
5.183204650878906250e+00 2.532784044742584229e-01 -3.148614466190338135e-01 8.600000000000000000e+01
5.219818115234375000e+00 2.390185892581939697e-01 -3.175606727600097656e-01 9.900000000000000000e+01
5.244437694549560547e+00 2.240254282951354980e-01 -3.193601667881011963e-01 1.140000000000000000e+02
5.249085903167724609e+00 2.080927938222885132e-01 -3.196600675582885742e-01 9.200000000000000000e+01
5.271623134613037109e+00 1.927903145551681519e-01 -3.213095963001251221e-01 9.100000000000000000e+01
5.300095081329345703e+00 1.775519847869873047e-01 -3.234090209007263184e-01 1.050000000000000000e+02
5.304601669311523438e+00 1.614121347665786743e-01 -3.237089216709136963e-01 1.020000000000000000e+02
5.337966918945312500e+00 1.460380554199218750e-01 -3.261832296848297119e-01 9.100000000000000000e+01
5.354340076446533203e+00 1.300486177206039429e-01 -3.273828923702239990e-01 8.000000000000000000e+01
5.427491664886474609e+00 1.151676476001739502e-01 -3.328563272953033447e-01 8.900000000000000000e+01
5.439784049987792969e+00 9.873331338167190552e-02 -3.337560892105102539e-01 9.900000000000000000e+01
5.481938362121582031e+00 8.267666399478912354e-02 -3.369051814079284668e-01 8.700000000000000000e+01
5.513076305389404297e+00 6.623019278049468994e-02 -3.392295241355895996e-01 1.080000000000000000e+02
5.521231174468994141e+00 4.938759654760360718e-02 -3.398293554782867432e-01 1.160000000000000000e+02
5.550274372100830078e+00 3.261927887797355652e-02 -3.420037329196929932e-01 1.100000000000000000e+02
5.595221519470214844e+00 1.571851596236228943e-02 -3.453777730464935303e-01 9.800000000000000000e+01
5.590257644653320312e+00 -1.446313923224806786e-03 -3.450028896331787109e-01 1.180000000000000000e+02
5.637094020843505859e+00 -1.875150017440319061e-02 -3.485268950462341309e-01 1.010000000000000000e+02
5.649973392486572266e+00 -3.612828254699707031e-02 -3.495016098022460938e-01 5.600000000000000000e+01
4.895997524261474609e+00 -4.635084792971611023e-02 -2.928176820278167725e-01 5.900000000000000000e+01
4.912783145904541016e+00 -6.158325076103210449e-02 -2.940923273563385010e-01 8.800000000000000000e+01
4.920547485351562500e+00 -7.677936553955078125e-02 -2.946921586990356445e-01 1.210000000000000000e+02
4.927267551422119141e+00 -9.200511127710342407e-02 -2.952170073986053467e-01 1.190000000000000000e+02
4.929953098297119141e+00 -1.071862503886222839e-01 -2.954419553279876709e-01 1.030000000000000000e+02
4.925613403320312500e+00 -1.222118213772773743e-01 -2.951420247554779053e-01 1.080000000000000000e+02
4.926212310791015625e+00 -1.373505741357803345e-01 -2.952170073986053467e-01 1.000000000000000000e+02
4.914803981781005859e+00 -1.521243602037429810e-01 -2.943922579288482666e-01 9.800000000000000000e+01
4.906341075897216797e+00 -1.669310480356216431e-01 -2.937924265861511230e-01 7.600000000000000000e+01
4.918760299682617188e+00 -1.824628114700317383e-01 -2.947671413421630859e-01 8.300000000000000000e+01
4.926148414611816406e+00 -1.978724151849746704e-01 -2.953669726848602295e-01 9.800000000000000000e+01
4.941458225250244141e+00 -2.136734277009963989e-01 -2.965666353702545166e-01 8.500000000000000000e+01
4.944764137268066406e+00 -2.290170043706893921e-01 -2.968665361404418945e-01 8.000000000000000000e+01
4.952005863189697266e+00 -2.445795089006423950e-01 -2.974663674831390381e-01 9.100000000000000000e+01
4.960194587707519531e+00 -2.602408230304718018e-01 -2.981411814689636230e-01 7.700000000000000000e+01
4.974307537078857422e+00 -2.762862741947174072e-01 -2.992658615112304688e-01 9.700000000000000000e+01
4.954522609710693359e+00 -2.904378175735473633e-01 -2.978412806987762451e-01 7.900000000000000000e+01
4.967542171478271484e+00 -3.064959645271301270e-01 -2.988909780979156494e-01 8.100000000000000000e+01
4.957622528076171875e+00 -3.211548626422882080e-01 -2.982161641120910645e-01 8.100000000000000000e+01
4.946665287017822266e+00 -3.356883227825164795e-01 -2.974663674831390381e-01 8.400000000000000000e+01
4.949590682983398438e+00 -3.511450290679931641e-01 -2.977662980556488037e-01 8.200000000000000000e+01
4.947495460510253906e+00 -3.662549257278442383e-01 -2.976913154125213623e-01 8.500000000000000000e+01
4.972198963165283203e+00 -3.834244310855865479e-01 -2.996407449245452881e-01 8.700000000000000000e+01
4.981933116912841797e+00 -3.995536565780639648e-01 -3.004655241966247559e-01 6.800000000000000000e+01
4.978696346282958984e+00 -4.146706759929656982e-01 -3.003155589103698730e-01 9.000000000000000000e+01
4.968459129333496094e+00 -4.291710853576660156e-01 -2.996407449245452881e-01 9.300000000000000000e+01
4.949241161346435547e+00 -4.428131282329559326e-01 -2.982911467552185059e-01 1.530000000000000000e+02
4.975661754608154297e+00 -4.605676829814910889e-01 -3.003905415534973145e-01 2.160000000000000000e+02
4.962313652038574219e+00 -4.746915400028228760e-01 -2.994908094406127930e-01 2.500000000000000000e+02
4.951902866363525391e+00 -4.890317618846893311e-01 -2.988159954547882080e-01 1.630000000000000000e+02
4.986093044281005859e+00 -5.078581571578979492e-01 -3.015152215957641602e-01 2.420000000000000000e+02
4.972610473632812500e+00 -5.219041705131530762e-01 -3.006154894828796387e-01 1.020000000000000000e+02
4.987840175628662109e+00 -5.389781594276428223e-01 -3.018901050090789795e-01 8.000000000000000000e+01
5.011931419372558594e+00 -5.571417212486267090e-01 -3.038395643234252930e-01 5.700000000000000000e+01
4.996327877044677734e+00 -5.709309577941894531e-01 -3.027898669242858887e-01 8.300000000000000000e+01
4.997524261474609375e+00 -5.866054296493530273e-01 -3.030147850513458252e-01 9.000000000000000000e+01
5.015501499176025391e+00 -6.043199896812438965e-01 -3.045143783092498779e-01 7.500000000000000000e+01
5.031437397003173828e+00 -6.219057440757751465e-01 -3.058639764785766602e-01 8.400000000000000000e+01
5.000816822052001953e+00 -6.337045431137084961e-01 -3.036895990371704102e-01 8.300000000000000000e+01
4.989949226379394531e+00 -6.478886008262634277e-01 -3.030147850513458252e-01 6.300000000000000000e+01
5.054166793823242188e+00 -6.719980239868164062e-01 -3.080383837223052979e-01 6.200000000000000000e+01
5.021450996398925781e+00 -6.833335757255554199e-01 -3.057140409946441650e-01 8.000000000000000000e+01
5.063775539398193359e+00 -7.049216032028198242e-01 -3.090880811214447021e-01 5.400000000000000000e+01
5.022099494934082031e+00 -7.148342132568359375e-01 -3.060889244079589844e-01 5.700000000000000000e+01
5.036658763885498047e+00 -7.326781749725341797e-01 -3.073635697364807129e-01 6.200000000000000000e+01
5.017619132995605469e+00 -7.456357479095458984e-01 -3.060889244079589844e-01 8.300000000000000000e+01
5.036011695861816406e+00 -7.641670107841491699e-01 -3.076634705066680908e-01 6.800000000000000000e+01
5.050395965576171875e+00 -7.822077870368957520e-01 -3.089381158351898193e-01 5.500000000000000000e+01
5.073581695556640625e+00 -8.017445206642150879e-01 -3.108875751495361328e-01 5.200000000000000000e+01
5.071098327636718750e+00 -8.173062801361083984e-01 -3.108875751495361328e-01 7.600000000000000000e+01
5.081358909606933594e+00 -8.349618315696716309e-01 -3.118622899055480957e-01 5.500000000000000000e+01
5.089591503143310547e+00 -8.523586988449096680e-01 -3.126870393753051758e-01 6.200000000000000000e+01
5.071225166320800781e+00 -8.652862906455993652e-01 -3.114874064922332764e-01 6.100000000000000000e+01
5.076406002044677734e+00 -8.822062015533447266e-01 -3.120872378349304199e-01 5.000000000000000000e+01
5.060910701751708984e+00 -8.955178856849670410e-01 -3.111124932765960693e-01 5.800000000000000000e+01
5.060101985931396484e+00 -9.113937616348266602e-01 -3.112624585628509521e-01 5.600000000000000000e+01
5.062186241149902344e+00 -9.278123378753662109e-01 -3.116373419761657715e-01 6.100000000000000000e+01
5.075000762939453125e+00 -9.462625384330749512e-01 -3.128370046615600586e-01 7.300000000000000000e+01
5.068154811859130859e+00 -9.610849618911743164e-01 -3.125371038913726807e-01 3.700000000000000000e+01
5.078890800476074219e+00 -9.792719483375549316e-01 -3.135868012905120850e-01 5.300000000000000000e+01
5.071948051452636719e+00 -9.940820932388305664e-01 -3.132868707180023193e-01 6.300000000000000000e+01
5.058116912841796875e+00 -1.007495522499084473e+00 -3.124621212482452393e-01 5.200000000000000000e+01
5.053047180175781250e+00 -1.022613406181335449e+00 -3.123121559619903564e-01 5.200000000000000000e+01
5.043048858642578125e+00 -1.036705732345581055e+00 -3.117873072624206543e-01 4.400000000000000000e+01
5.025202274322509766e+00 -1.049116373062133789e+00 -3.106626272201538086e-01 4.200000000000000000e+01
5.024886608123779297e+00 -1.065148711204528809e+00 -3.108875751495361328e-01 5.700000000000000000e+01
5.003072261810302734e+00 -1.076574802398681641e+00 -3.094629645347595215e-01 3.800000000000000000e+01
5.038714885711669922e+00 -1.100428223609924316e+00 -3.124621212482452393e-01 1.700000000000000000e+01
9.718221664428710938e+00 -2.278971433639526367e+00 -6.752092242240905762e-01 9.000000000000000000e+00
9.754840850830078125e+00 -2.319154024124145508e+00 -6.785832643508911133e-01 7.000000000000000000e+00
9.991008758544921875e+00 -2.407705545425415039e+00 -6.974028944969177246e-01 1.300000000000000000e+01
9.940098762512207031e+00 -6.958678245544433594e+00 -8.370133042335510254e-01 4.500000000000000000e+01
9.889357566833496094e+00 -6.968463897705078125e+00 -8.343140482902526855e-01 9.500000000000000000e+01
9.843530654907226562e+00 -6.981465339660644531e+00 -8.320646882057189941e-01 8.300000000000000000e+01
9.240139961242675781e+00 -6.596227169036865234e+00 -7.783049345016479492e-01 4.600000000000000000e+01
9.129967689514160156e+00 -6.559958934783935547e+00 -7.699823379516601562e-01 3.500000000000000000e+01
9.576039314270019531e+00 -6.925098896026611328e+00 -8.132450580596923828e-01 1.500000000000000000e+01
9.118569374084472656e+00 -6.636981010437011719e+00 -7.726815342903137207e-01 8.500000000000000000e+01
9.015307426452636719e+00 -6.604228973388671875e+00 -7.649587392807006836e-01 1.900000000000000000e+02
7.941150665283203125e+00 -5.854893684387207031e+00 -6.665116548538208008e-01 2.600000000000000000e+01
7.835862636566162109e+00 -5.814460754394531250e+00 -6.583389639854431152e-01 4.900000000000000000e+01
7.813992023468017578e+00 -5.835490226745605469e+00 -6.579641103744506836e-01 4.000000000000000000e+01
7.241236209869384766e+00 -5.442456245422363281e+00 -6.057788729667663574e-01 1.620000000000000000e+02
7.230867385864257812e+00 -5.469459056854248047e+00 -6.063787341117858887e-01 1.000000000000000000e+02
7.212466239929199219e+00 -5.490409374237060547e+00 -6.062287688255310059e-01 9.700000000000000000e+01
7.197962760925292969e+00 -5.514329910278320312e+00 -6.064537167549133301e-01 1.320000000000000000e+02
7.162057876586914062e+00 -5.521774768829345703e+00 -6.046541929244995117e-01 4.880000000000000000e+02
7.177385807037353516e+00 -5.568783760070800781e+00 -6.077283620834350586e-01 4.300000000000000000e+01
7.186204910278320312e+00 -5.611028671264648438e+00 -6.102026700973510742e-01 5.600000000000000000e+01
6.298605442047119141e+00 -4.949191093444824219e+00 -5.269762277603149414e-01 2.000000000000000000e+01
6.249756813049316406e+00 -4.941896915435791016e+00 -5.237521529197692871e-01 2.900000000000000000e+01
5.817883014678955078e+00 -4.629493236541748047e+00 -4.837135374546051025e-01 2.320000000000000000e+02
5.967115879058837891e+00 -4.778209209442138672e+00 -4.994590580463409424e-01 4.200000000000000000e+01
5.472175598144531250e+00 -4.437278747558593750e+00 -4.543968439102172852e-01 1.600000000000000000e+01
5.416041851043701172e+00 -4.419373512268066406e+00 -4.502730071544647217e-01 2.000000000000000000e+01
6.970795154571533203e+00 5.267604351043701172e+00 -6.091946959495544434e-01 3.280000000000000000e+02
6.877707481384277344e+00 5.164178371429443359e+00 -5.984935164451599121e-01 1.300000000000000000e+02
6.891920566558837891e+00 5.141860961914062500e+00 -5.983372926712036133e-01 1.130000000000000000e+02
6.916472434997558594e+00 5.127223968505859375e+00 -5.991964936256408691e-01 1.240000000000000000e+02
6.922538280487060547e+00 5.098885059356689453e+00 -5.982591509819030762e-01 1.200000000000000000e+02
6.951020240783691406e+00 5.087044239044189453e+00 -5.995089411735534668e-01 1.220000000000000000e+02
7.032709598541259766e+00 5.113775730133056641e+00 -6.059140563011169434e-01 2.400000000000000000e+01
7.008769512176513672e+00 5.063565731048583984e+00 -6.020866036415100098e-01 2.300000000000000000e+01
7.051806926727294922e+00 5.061806678771972656e+00 -6.047424077987670898e-01 2.300000000000000000e+01
7.088405609130859375e+00 5.055199623107910156e+00 -6.067732572555541992e-01 2.900000000000000000e+01
7.098187446594238281e+00 5.029394149780273438e+00 -6.062265038490295410e-01 5.500000000000000000e+01
7.062227725982666016e+00 4.971436500549316406e+00 -6.013054847717285156e-01 3.150000000000000000e+02
7.120744228363037109e+00 4.980031490325927734e+00 -6.054453849792480469e-01 1.400000000000000000e+01
7.113884925842285156e+00 4.942801475524902344e+00 -6.033363938331604004e-01 8.000000000000000000e+00
7.130924701690673828e+00 4.890036582946777344e+00 -6.020866036415100098e-01 2.900000000000000000e+01
5.683225631713867188e+00 3.770296573638916016e+00 -4.589870870113372803e-01 1.020000000000000000e+02
5.658140182495117188e+00 3.728702783584594727e+00 -4.555501937866210938e-01 1.340000000000000000e+02
5.662880420684814453e+00 3.706957578659057617e+00 -4.549252986907958984e-01 1.500000000000000000e+02
5.637453556060791016e+00 3.665651559829711914e+00 -4.514884054660797119e-01 1.220000000000000000e+02
5.596753597259521484e+00 3.614799737930297852e+00 -4.466455280780792236e-01 1.190000000000000000e+02
5.607817173004150391e+00 3.597612142562866211e+00 -4.466455280780792236e-01 1.470000000000000000e+02
5.639845848083496094e+00 3.593785762786865234e+00 -4.485982954502105713e-01 2.530000000000000000e+02
5.666007518768310547e+00 3.586064100265502930e+00 -4.500043094158172607e-01 2.600000000000000000e+02
5.687110424041748047e+00 3.575031757354736328e+00 -4.509416222572326660e-01 2.570000000000000000e+02
5.698897361755371094e+00 3.558095216751098633e+00 -4.510197341442108154e-01 2.450000000000000000e+02
5.709786891937255859e+00 3.540594577789306641e+00 -4.510197341442108154e-01 2.480000000000000000e+02
5.724866390228271484e+00 3.525674819946289062e+00 -4.514102935791015625e-01 2.560000000000000000e+02
5.653163433074951172e+00 3.457631111145019531e+00 -4.438335299491882324e-01 1.120000000000000000e+02
5.630515575408935547e+00 3.420083522796630859e+00 -4.407871961593627930e-01 1.320000000000000000e+02
5.616226673126220703e+00 3.387857913970947266e+00 -4.385219812393188477e-01 1.000000000000000000e+02
5.627449512481689453e+00 3.371124029159545898e+00 -4.386000931262969971e-01 1.140000000000000000e+02
5.600068092346191406e+00 3.331413745880126953e+00 -4.351631999015808105e-01 9.500000000000000000e+01
5.590520858764648438e+00 3.302553176879882812e+00 -4.333666265010833740e-01 1.130000000000000000e+02
5.585148811340332031e+00 3.276305198669433594e+00 -4.319606423377990723e-01 1.120000000000000000e+02
5.546935081481933594e+00 3.231050729751586914e+00 -4.275864064693450928e-01 1.100000000000000000e+02
5.528344154357910156e+00 3.197543621063232422e+00 -4.250087440013885498e-01 7.900000000000000000e+01
5.527754306793212891e+00 3.174609184265136719e+00 -4.240714013576507568e-01 1.020000000000000000e+02
5.501096248626708984e+00 3.136891126632690430e+00 -4.207907617092132568e-01 7.900000000000000000e+01
5.403122901916503906e+00 3.059084177017211914e+00 -4.111049771308898926e-01 8.200000000000000000e+01
5.428124904632568359e+00 3.051287651062011719e+00 -4.125109612941741943e-01 9.700000000000000000e+01
5.418309211730957031e+00 3.023929834365844727e+00 -4.107925295829772949e-01 9.600000000000000000e+01
5.407505512237548828e+00 2.996177911758422852e+00 -4.089959859848022461e-01 9.000000000000000000e+01
5.383480072021484375e+00 2.961312294006347656e+00 -4.060277640819549561e-01 8.800000000000000000e+01
5.375041007995605469e+00 2.935224294662475586e+00 -4.044655263423919678e-01 8.100000000000000000e+01
5.349841117858886719e+00 2.900187253952026367e+00 -4.014191925525665283e-01 8.300000000000000000e+01
5.349057197570800781e+00 2.878562927246093750e+00 -4.005599617958068848e-01 8.800000000000000000e+01
5.330605030059814453e+00 2.847574710845947266e+00 -3.981385231018066406e-01 9.800000000000000000e+01
5.312893867492675781e+00 2.817193746566772461e+00 -3.957951962947845459e-01 8.900000000000000000e+01
5.301221847534179688e+00 2.790199279785156250e+00 -3.939986526966094971e-01 9.000000000000000000e+01
5.293852329254150391e+00 2.765611648559570312e+00 -3.925926387310028076e-01 7.000000000000000000e+01
5.259832382202148438e+00 2.727325916290283203e+00 -3.888432979583740234e-01 7.000000000000000000e+01
5.233604907989501953e+00 2.693381786346435547e+00 -3.857969641685485840e-01 9.700000000000000000e+01
5.224975109100341797e+00 2.668695211410522461e+00 -3.843128681182861328e-01 8.900000000000000000e+01
5.210908412933349609e+00 2.641381978988647461e+00 -3.823601007461547852e-01 1.030000000000000000e+02
5.214534759521484375e+00 2.623142242431640625e+00 -3.819695413112640381e-01 7.500000000000000000e+01
5.191339969635009766e+00 2.591544628143310547e+00 -3.792356550693511963e-01 9.100000000000000000e+01
5.140308380126953125e+00 2.546392679214477539e+00 -3.740803003311157227e-01 9.700000000000000000e+01
5.150780200958251953e+00 2.531929969787597656e+00 -3.743146359920501709e-01 8.800000000000000000e+01
5.094908237457275391e+00 2.485079526901245117e+00 -3.687687516212463379e-01 6.400000000000000000e+01
5.092637538909912109e+00 2.464658737182617188e+00 -3.679095208644866943e-01 8.600000000000000000e+01
5.091188430786132812e+00 2.444706916809082031e+00 -3.671284317970275879e-01 8.000000000000000000e+01
5.079764842987060547e+00 2.420069694519042969e+00 -3.654880821704864502e-01 8.600000000000000000e+01
5.079955101013183594e+00 2.401065111160278320e+00 -3.648631870746612549e-01 8.600000000000000000e+01
5.070148468017578125e+00 2.377425193786621094e+00 -3.633790910243988037e-01 8.600000000000000000e+01
5.053013324737548828e+00 2.350503921508789062e+00 -3.612700998783111572e-01 8.300000000000000000e+01
5.044812679290771484e+00 2.327888011932373047e+00 -3.599421977996826172e-01 8.900000000000000000e+01
5.032895088195800781e+00 2.303684711456298828e+00 -3.583018779754638672e-01 8.000000000000000000e+01
5.015430450439453125e+00 2.277102947235107422e+00 -3.561928570270538330e-01 8.600000000000000000e+01
5.006031036376953125e+00 2.254335165023803711e+00 -3.547868728637695312e-01 7.600000000000000000e+01
4.988347053527832031e+00 2.227986812591552734e+00 -3.526778817176818848e-01 7.900000000000000000e+01
4.957788467407226562e+00 2.196114301681518555e+00 -3.494753241539001465e-01 9.600000000000000000e+01
4.948986530303955078e+00 2.174075841903686523e+00 -3.481474220752716064e-01 9.100000000000000000e+01
4.942837715148925781e+00 2.153306722640991211e+00 -3.470538556575775146e-01 9.900000000000000000e+01
4.921966075897216797e+00 2.126268625259399414e+00 -3.447105288505554199e-01 8.000000000000000000e+01
4.910138607025146484e+00 2.103305578231811523e+00 -3.431483209133148193e-01 8.900000000000000000e+01
4.903722286224365234e+00 2.082773923873901367e+00 -3.420547544956207275e-01 9.100000000000000000e+01
4.856801033020019531e+00 2.045273303985595703e+00 -3.375243246555328369e-01 1.010000000000000000e+02
4.863973140716552734e+00 2.030747413635253906e+00 -3.376024365425109863e-01 1.140000000000000000e+02
4.847152233123779297e+00 2.006281375885009766e+00 -3.356496393680572510e-01 9.400000000000000000e+01
4.841295242309570312e+00 1.986479997634887695e+00 -3.346342146396636963e-01 9.900000000000000000e+01
4.831668376922607422e+00 1.965230822563171387e+00 -3.333063125610351562e-01 9.200000000000000000e+01
4.818258285522460938e+00 1.942567944526672363e+00 -3.316659927368164062e-01 1.200000000000000000e+02
4.829749584197998047e+00 1.929996848106384277e+00 -3.321346640586853027e-01 1.070000000000000000e+02
4.805988788604736328e+00 1.903420209884643555e+00 -3.296350836753845215e-01 1.070000000000000000e+02
4.788606166839599609e+00 1.879558086395263672e+00 -3.276823163032531738e-01 1.060000000000000000e+02
4.790633678436279297e+00 1.863412022590637207e+00 -3.273698687553405762e-01 1.140000000000000000e+02
4.789816379547119141e+00 1.846195340156555176e+00 -3.268230855464935303e-01 1.400000000000000000e+02
4.792664051055908203e+00 1.830424308776855469e+00 -3.265887498855590820e-01 1.210000000000000000e+02
4.766556262969970703e+00 1.803712368011474609e+00 -3.239329755306243896e-01 1.430000000000000000e+02
4.755265235900878906e+00 1.782779097557067871e+00 -3.225269913673400879e-01 1.460000000000000000e+02
4.735479831695556641e+00 1.758807420730590820e+00 -3.204179704189300537e-01 1.420000000000000000e+02
4.710914611816406250e+00 1.733252167701721191e+00 -3.179184198379516602e-01 1.570000000000000000e+02
4.706843376159667969e+00 1.715376496315002441e+00 -3.171373307704925537e-01 1.650000000000000000e+02
4.685828685760498047e+00 1.691447734832763672e+00 -3.149501979351043701e-01 1.630000000000000000e+02
4.688179492950439453e+00 1.676056742668151855e+00 -3.147158622741699219e-01 1.830000000000000000e+02
4.686721324920654297e+00 1.659335851669311523e+00 -3.141691088676452637e-01 1.730000000000000000e+02
4.673915863037109375e+00 1.638680577278137207e+00 -3.126849830150604248e-01 1.500000000000000000e+02
4.642191886901855469e+00 1.611578464508056641e+00 -3.096386492252349854e-01 1.740000000000000000e+02
4.647114276885986328e+00 1.597328782081604004e+00 -3.096386492252349854e-01 1.690000000000000000e+02
4.624623775482177734e+00 1.573747396469116211e+00 -3.073734343051910400e-01 1.810000000000000000e+02
4.605811595916748047e+00 1.551592469215393066e+00 -3.054206669330596924e-01 1.700000000000000000e+02
4.600147724151611328e+00 1.533984541893005371e+00 -3.045614361763000488e-01 1.970000000000000000e+02
4.588738441467285156e+00 1.514550685882568359e+00 -3.032335340976715088e-01 1.880000000000000000e+02
4.580096721649169922e+00 1.496130228042602539e+00 -3.021399974822998047e-01 2.370000000000000000e+02
4.585613727569580078e+00 1.482378363609313965e+00 -3.022181093692779541e-01 2.130000000000000000e+02
4.587291717529296875e+00 1.467391371726989746e+00 -3.019837737083435059e-01 2.010000000000000000e+02
4.581316947937011719e+00 1.450000643730163574e+00 -3.011245429515838623e-01 2.090000000000000000e+02
4.558154582977294922e+00 1.427296280860900879e+00 -2.988593280315399170e-01 2.180000000000000000e+02
4.519659519195556641e+00 1.400026321411132812e+00 -2.953443229198455811e-01 2.340000000000000000e+02
4.522980213165283203e+00 1.385861396789550781e+00 -2.952662110328674316e-01 2.460000000000000000e+02
4.522440433502197266e+00 1.370532393455505371e+00 -2.948756515979766846e-01 2.390000000000000000e+02
4.511344909667968750e+00 1.352070212364196777e+00 -2.936258912086486816e-01 2.460000000000000000e+02
4.505913734436035156e+00 1.335389494895935059e+00 -2.928447723388671875e-01 2.350000000000000000e+02
4.485115528106689453e+00 1.314267516136169434e+00 -2.908138632774353027e-01 2.990000000000000000e+02
4.466145515441894531e+00 1.293840885162353516e+00 -2.889392077922821045e-01 2.760000000000000000e+02
4.446134090423583984e+00 1.273268580436706543e+00 -2.869864404201507568e-01 2.760000000000000000e+02
4.437549591064453125e+00 1.256090879440307617e+00 -2.859709858894348145e-01 2.640000000000000000e+02
4.431781768798828125e+00 1.239783883094787598e+00 -2.851898670196533203e-01 2.850000000000000000e+02
4.427877426147460938e+00 1.224055528640747070e+00 -2.845650017261505127e-01 2.710000000000000000e+02
4.421033382415771484e+00 1.207574605941772461e+00 -2.837057709693908691e-01 3.050000000000000000e+02
4.412205219268798828e+00 1.190627455711364746e+00 -2.826903164386749268e-01 3.070000000000000000e+02
4.407167911529541016e+00 1.174773454666137695e+00 -2.819873094558715820e-01 3.420000000000000000e+02
4.399182319641113281e+00 1.158199667930603027e+00 -2.810499966144561768e-01 3.150000000000000000e+02
4.394996166229248047e+00 1.142689943313598633e+00 -2.804251015186309814e-01 3.040000000000000000e+02
4.390756607055664062e+00 1.127216935157775879e+00 -2.798002064228057861e-01 3.450000000000000000e+02
4.377766132354736328e+00 1.109575152397155762e+00 -2.784723341464996338e-01 3.140000000000000000e+02
4.373412609100341797e+00 1.094202518463134766e+00 -2.778474390506744385e-01 3.400000000000000000e+02
4.368038177490234375e+00 1.078627943992614746e+00 -2.771444320678710938e-01 3.420000000000000000e+02
4.365515708923339844e+00 1.063804984092712402e+00 -2.766757607460021973e-01 3.370000000000000000e+02
4.359065532684326172e+00 1.048075199127197266e+00 -2.758946716785430908e-01 3.430000000000000000e+02
4.338980674743652344e+00 1.029172182083129883e+00 -2.740199863910675049e-01 3.590000000000000000e+02
4.339205265045166016e+00 1.015173792839050293e+00 -2.737856507301330566e-01 3.160000000000000000e+02
4.325785636901855469e+00 9.980445504188537598e-01 -2.724577784538269043e-01 3.300000000000000000e+02
4.316190242767333984e+00 9.818921685218811035e-01 -2.714423239231109619e-01 3.700000000000000000e+02
4.307509422302246094e+00 9.660264253616333008e-01 -2.705049812793731689e-01 3.670000000000000000e+02
4.301692008972167969e+00 9.508690237998962402e-01 -2.698020040988922119e-01 4.030000000000000000e+02
4.287055492401123047e+00 9.338457584381103516e-01 -2.683959901332855225e-01 3.990000000000000000e+02
4.279178619384765625e+00 9.183864593505859375e-01 -2.675367593765258789e-01 4.030000000000000000e+02
4.272222042083740234e+00 9.031906127929687500e-01 -2.667556703090667725e-01 3.920000000000000000e+02
4.269117355346679688e+00 8.888593912124633789e-01 -2.662869989871978760e-01 3.980000000000000000e+02
4.262057781219482422e+00 8.737544417381286621e-01 -2.655058801174163818e-01 4.220000000000000000e+02
4.257877826690673828e+00 8.592931628227233887e-01 -2.649590969085693359e-01 4.120000000000000000e+02
4.252671718597412109e+00 8.446714878082275391e-01 -2.643342018127441406e-01 4.150000000000000000e+02
4.245459079742431641e+00 8.297071456909179688e-01 -2.635531127452850342e-01 4.200000000000000000e+02
