# .PCD v.7 - Point Cloud Data file format
VERSION .7
FIELDS x y z intensity
SIZE 4 4 4 4
TYPE F F F F
COUNT 1 1 1 1
WIDTH 474
HEIGHT 1
VIEWPOINT 0 0 0 1 0 0 0
POINTS 474
DATA ascii
6.420460224151611328e+00 6.947836279869079590e-01 9.904003888368606567e-02 9.200000000000000000e+01
6.398693084716796875e+00 6.725756525993347168e-01 9.894788265228271484e-02 1.140000000000000000e+02
6.359938144683837891e+00 6.487839818000793457e-01 9.879045188426971436e-02 8.700000000000000000e+01
6.340005397796630859e+00 6.271051168441772461e-01 9.870598465204238892e-02 1.010000000000000000e+02
6.291131973266601562e+00 6.027910709381103516e-01 9.851015359163284302e-02 8.900000000000000000e+01
6.278015613555908203e+00 5.821036100387573242e-01 9.845256060361862183e-02 9.700000000000000000e+01
6.225987434387207031e+00 5.580239892005920410e-01 9.824521839618682861e-02 9.100000000000000000e+01
6.224681377410888672e+00 5.386618971824645996e-01 9.823369979858398438e-02 8.900000000000000000e+01
6.193418979644775391e+00 5.168207287788391113e-01 9.810698777437210083e-02 7.500000000000000000e+01
6.176036357879638672e+00 4.962968230247497559e-01 9.803403168916702271e-02 9.200000000000000000e+01
6.104747295379638672e+00 4.717285633087158203e-01 9.775373339653015137e-02 8.200000000000000000e+01
6.081233978271484375e+00 4.511497020721435547e-01 9.765774011611938477e-02 6.700000000000000000e+01
6.057652473449707031e+00 4.307195842266082764e-01 9.756174683570861816e-02 9.800000000000000000e+01
6.042982578277587891e+00 4.110484421253204346e-01 9.750030934810638428e-02 9.800000000000000000e+01
6.009288787841796875e+00 3.902417123317718506e-01 9.736592322587966919e-02 9.300000000000000000e+01
5.985505580902099609e+00 3.702622056007385254e-01 9.726992994546890259e-02 9.100000000000000000e+01
5.968644142150878906e+00 3.508424758911132812e-01 9.720081090927124023e-02 8.800000000000000000e+01
5.936743736267089844e+00 3.306967020034790039e-01 9.707410633563995361e-02 7.600000000000000000e+01
5.915760993957519531e+00 3.113271594047546387e-01 9.698963165283203125e-02 8.000000000000000000e+01
5.895713806152343750e+00 2.921388745307922363e-01 9.690899401903152466e-02 8.500000000000000000e+01
5.888591289520263672e+00 2.736789882183074951e-01 9.687827527523040771e-02 8.400000000000000000e+01
5.860430240631103516e+00 2.543567717075347900e-01 9.676692634820938110e-02 8.500000000000000000e+01
5.823214054107666016e+00 2.348480224609375000e-01 9.662101417779922485e-02 1.010000000000000000e+02
5.792929172515869141e+00 2.158300578594207764e-01 9.650198370218276978e-02 8.300000000000000000e+01
5.763581752777099609e+00 1.970342099666595459e-01 9.638679027557373047e-02 6.000000000000000000e+01
5.730175495147705078e+00 1.782964318990707397e-01 9.625624120235443115e-02 7.800000000000000000e+01
5.709703922271728516e+00 1.601288020610809326e-01 9.617561101913452148e-02 9.300000000000000000e+01
5.688175201416015625e+00 1.420635879039764404e-01 9.609113633632659912e-02 8.400000000000000000e+01
5.651593208312988281e+00 1.238048002123832703e-01 9.594906866550445557e-02 7.300000000000000000e+01
5.626951217651367188e+00 1.059967502951622009e-01 9.585307538509368896e-02 8.000000000000000000e+01
5.626250267028808594e+00 8.871733397245407104e-02 9.584923088550567627e-02 7.900000000000000000e+01
5.596498489379882812e+00 7.107754051685333252e-02 9.573404490947723389e-02 6.700000000000000000e+01
5.557692050933837891e+00 5.353525653481483459e-02 9.558429569005966187e-02 7.900000000000000000e+01
5.531830787658691406e+00 3.631592169404029846e-02 9.548445791006088257e-02 8.200000000000000000e+01
5.489916801452636719e+00 1.920127682387828827e-02 9.532319009304046631e-02 8.600000000000000000e+01
5.468950271606445312e+00 2.351257251575589180e-03 9.524255990982055664e-02 8.800000000000000000e+01
5.446931838989257812e+00 -1.436720136553049088e-02 9.515808522701263428e-02 1.020000000000000000e+02
5.419862747192382812e+00 -3.092154674232006073e-02 9.505441039800643921e-02 9.600000000000000000e+01
5.395743370056152344e+00 -4.733653366565704346e-02 9.496226161718368530e-02 8.800000000000000000e+01
5.380574226379394531e+00 -6.371121853590011597e-02 9.490466117858886719e-02 1.110000000000000000e+02
5.352356910705566406e+00 -7.979825884103775024e-02 9.479714930057525635e-02 9.300000000000000000e+01
5.329090595245361328e+00 -9.580311179161071777e-02 9.470883756875991821e-02 1.140000000000000000e+02
5.313775062561035156e+00 -1.118350401520729065e-01 9.465124458074569702e-02 1.090000000000000000e+02
5.294412612915039062e+00 -1.276770830154418945e-01 9.457828849554061890e-02 9.700000000000000000e+01
5.273004055023193359e+00 -1.433468461036682129e-01 9.449765086174011230e-02 1.120000000000000000e+02
5.263543605804443359e+00 -1.592504978179931641e-01 9.446309506893157959e-02 1.270000000000000000e+02
5.235045909881591797e+00 -1.744627803564071655e-01 9.435558319091796875e-02 1.160000000000000000e+02
5.227490901947021484e+00 -1.902675777673721313e-01 9.432870894670486450e-02 9.800000000000000000e+01
5.183916568756103516e+00 -2.046044021844863892e-01 9.416359663009643555e-02 1.210000000000000000e+02
5.171275615692138672e+00 -2.199962735176086426e-01 9.411752223968505859e-02 8.900000000000000000e+01
5.150597095489501953e+00 -2.349471896886825562e-01 9.404072910547256470e-02 1.070000000000000000e+02
5.135869026184082031e+00 -2.500656843185424805e-01 9.398697316646575928e-02 1.170000000000000000e+02
5.114105701446533203e+00 -2.647334635257720947e-01 9.390633553266525269e-02 1.080000000000000000e+02
5.110273838043212891e+00 -2.802574932575225830e-01 9.389481693506240845e-02 1.110000000000000000e+02
5.089424133300781250e+00 -2.947758734226226807e-01 9.381802380084991455e-02 1.280000000000000000e+02
5.079512596130371094e+00 -3.098397552967071533e-01 9.378346800804138184e-02 1.390000000000000000e+02
5.071552276611328125e+00 -3.249737322330474854e-01 9.375658631324768066e-02 1.500000000000000000e+02
5.029624462127685547e+00 -3.377801477909088135e-01 9.359916299581527710e-02 1.280000000000000000e+02
5.004623413085937500e+00 -3.515252172946929932e-01 9.350700676441192627e-02 1.170000000000000000e+02
4.990556716918945312e+00 -3.659255802631378174e-01 9.345708787441253662e-02 1.350000000000000000e+02
4.967474937438964844e+00 -3.795563876628875732e-01 9.337262064218521118e-02 1.470000000000000000e+02
4.969277381896972656e+00 -3.950326442718505859e-01 9.338413923978805542e-02 1.600000000000000000e+02
4.921202182769775391e+00 -4.064033627510070801e-01 9.320367127656936646e-02 1.730000000000000000e+02
4.897016525268554688e+00 -4.195339381694793701e-01 9.311535954475402832e-02 1.570000000000000000e+02
4.875784873962402344e+00 -4.327854514122009277e-01 9.303855895996093750e-02 1.650000000000000000e+02
4.854518413543701172e+00 -4.459106922149658203e-01 9.296176582574844360e-02 1.690000000000000000e+02
4.843172550201416016e+00 -4.598557949066162109e-01 9.292337298393249512e-02 1.600000000000000000e+02
4.811882495880126953e+00 -4.717818796634674072e-01 9.280817955732345581e-02 2.060000000000000000e+02
4.798473834991455078e+00 -4.853335022926330566e-01 9.276210516691207886e-02 1.910000000000000000e+02
4.790994644165039062e+00 -4.994300305843353271e-01 9.273906797170639038e-02 1.970000000000000000e+02
4.781485557556152344e+00 -5.132715702056884766e-01 9.270834922790527344e-02 2.150000000000000000e+02
4.765973567962646484e+00 -5.264001488685607910e-01 9.265459328889846802e-02 2.200000000000000000e+02
4.744463920593261719e+00 -5.387607812881469727e-01 9.257780015468597412e-02 2.200000000000000000e+02
4.709018707275390625e+00 -5.493706464767456055e-01 9.244724363088607788e-02 2.330000000000000000e+02
4.706317901611328125e+00 -5.636961460113525391e-01 9.244340658187866211e-02 2.480000000000000000e+02
4.697618961334228516e+00 -5.772777199745178223e-01 9.241652488708496094e-02 2.370000000000000000e+02
4.689872741699218750e+00 -5.909363627433776855e-01 9.239348769187927246e-02 2.830000000000000000e+02
4.679112434387207031e+00 -6.041684746742248535e-01 9.235893189907073975e-02 2.900000000000000000e+02
4.671288490295410156e+00 -6.177337169647216797e-01 9.233589470386505127e-02 2.560000000000000000e+02
4.636670112609863281e+00 -6.276320815086364746e-01 9.220918267965316772e-02 2.890000000000000000e+02
4.627789497375488281e+00 -6.408932209014892578e-01 9.218230843544006348e-02 2.840000000000000000e+02
4.611939907073974609e+00 -6.531235575675964355e-01 9.212855249643325806e-02 2.860000000000000000e+02
4.593090057373046875e+00 -6.648325920104980469e-01 9.206327795982360840e-02 3.010000000000000000e+02
4.578168869018554688e+00 -6.770177483558654785e-01 9.201335906982421875e-02 3.030000000000000000e+02
4.562227725982666016e+00 -6.889681816101074219e-01 9.195960313081741333e-02 2.960000000000000000e+02
4.541314601898193359e+00 -7.000648975372314453e-01 9.188664704561233521e-02 3.340000000000000000e+02
4.523340225219726562e+00 -7.115062475204467773e-01 9.182520955801010132e-02 3.080000000000000000e+02
4.505338668823242188e+00 -7.228439450263977051e-01 9.176377952098846436e-02 3.360000000000000000e+02
4.501126289367675781e+00 -7.363396286964416504e-01 9.175609797239303589e-02 3.530000000000000000e+02
4.480104923248291016e+00 -7.470183968544006348e-01 9.168314188718795776e-02 3.500000000000000000e+02
4.479763984680175781e+00 -7.610948681831359863e-01 9.169082343578338623e-02 3.490000000000000000e+02
4.451789379119873047e+00 -7.703987360000610352e-01 9.159099310636520386e-02 3.440000000000000000e+02
4.433648109436035156e+00 -7.812745571136474609e-01 9.152955561876296997e-02 3.590000000000000000e+02
4.410560607910156250e+00 -7.911630868911743164e-01 9.144891798496246338e-02 3.310000000000000000e+02
4.395324230194091797e+00 -8.023548126220703125e-01 9.139900654554367065e-02 3.790000000000000000e+02
4.387926101684570312e+00 -8.149221539497375488e-01 9.137980639934539795e-02 3.800000000000000000e+02
4.372631549835205078e+00 -8.259659409523010254e-01 9.132988750934600830e-02 3.210000000000000000e+02
4.359274864196777344e+00 -8.373010158538818359e-01 9.128765016794204712e-02 3.830000000000000000e+02
4.336075305938720703e+00 -8.466444015502929688e-01 9.120701998472213745e-02 3.700000000000000000e+02
4.322668075561523438e+00 -8.578010201454162598e-01 9.116478264331817627e-02 3.730000000000000000e+02
4.311193943023681641e+00 -8.692788481712341309e-01 9.113022685050964355e-02 3.860000000000000000e+02
4.296751022338867188e+00 -8.800920248031616211e-01 9.108414500951766968e-02 3.780000000000000000e+02
4.299904823303222656e+00 -8.944928050041198730e-01 9.110718220472335815e-02 3.890000000000000000e+02
4.276594638824462891e+00 -9.033381342887878418e-01 9.102655202150344849e-02 3.640000000000000000e+02
4.262070178985595703e+00 -9.139369726181030273e-01 9.098047763109207153e-02 4.030000000000000000e+02
4.247520923614501953e+00 -9.244551658630371094e-01 9.093439579010009766e-02 3.930000000000000000e+02
4.232947826385498047e+00 -9.348927140235900879e-01 9.088832139968872070e-02 3.850000000000000000e+02
4.226156234741210938e+00 -9.469997286796569824e-01 9.087296575307846069e-02 4.060000000000000000e+02
4.231031894683837891e+00 -9.617350697517395020e-01 9.090368449687957764e-02 3.740000000000000000e+02
4.252421379089355469e+00 -9.803299903869628906e-01 9.099967032670974731e-02 3.710000000000000000e+02
4.270815849304199219e+00 -9.983819127082824707e-01 9.108414500951766968e-02 3.640000000000000000e+02
4.286219596862792969e+00 -1.015863656997680664e+00 9.115710109472274780e-02 3.860000000000000000e+02
4.296695232391357422e+00 -1.032280802726745605e+00 9.121085703372955322e-02 3.830000000000000000e+02
4.296422481536865234e+00 -1.046168088912963867e+00 9.122237563133239746e-02 3.630000000000000000e+02
4.301930427551269531e+00 -1.061501502990722656e+00 9.125693142414093018e-02 3.410000000000000000e+02
4.312234878540039062e+00 -1.078091740608215332e+00 9.131068736314773560e-02 2.940000000000000000e+02
4.327324867248535156e+00 -1.095983266830444336e+00 9.138364344835281372e-02 2.870000000000000000e+02
4.336534023284912109e+00 -1.112486004829406738e+00 9.143356233835220337e-02 3.270000000000000000e+02
4.363103389739990234e+00 -1.133583664894104004e+00 9.155259281396865845e-02 1.160000000000000000e+02
4.354769706726074219e+00 -1.145691394805908203e+00 9.153339266777038574e-02 1.050000000000000000e+02
4.345436573028564453e+00 -1.157501339912414551e+00 9.151035547256469727e-02 1.110000000000000000e+02
4.391104221343994141e+00 -1.184111237525939941e+00 9.170617908239364624e-02 1.820000000000000000e+02
4.371051311492919922e+00 -1.193099141120910645e+00 9.164090454578399658e-02 3.290000000000000000e+02
4.366406440734863281e+00 -1.206237316131591797e+00 9.163706749677658081e-02 8.900000000000000000e+01
4.398317813873291016e+00 -1.229593157768249512e+00 9.177913516759872437e-02 1.700000000000000000e+02
4.417617797851562500e+00 -1.249616265296936035e+00 9.187129139900207520e-02 2.020000000000000000e+02
4.475290775299072266e+00 -1.280779123306274414e+00 9.211703389883041382e-02 2.540000000000000000e+02
4.472300529479980469e+00 -1.294781327247619629e+00 9.212087094783782959e-02 2.210000000000000000e+02
4.473105430603027344e+00 -1.309901714324951172e+00 9.214007109403610229e-02 2.360000000000000000e+02
4.503582477569580078e+00 -1.333845734596252441e+00 9.227830171585083008e-02 1.710000000000000000e+02
4.519585132598876953e+00 -1.353683710098266602e+00 9.235893189907073975e-02 1.760000000000000000e+02
4.524024009704589844e+00 -1.370152950286865234e+00 9.239348769187927246e-02 1.880000000000000000e+02
4.546571254730224609e+00 -1.392226934432983398e+00 9.250099956989288330e-02 1.360000000000000000e+02
4.552785873413085938e+00 -1.409423232078552246e+00 9.254323691129684448e-02 1.420000000000000000e+02
4.453962802886962891e+00 -1.393807530403137207e+00 9.216310828924179077e-02 3.700000000000000000e+01
4.573607921600341797e+00 -1.446684122085571289e+00 9.266226738691329956e-02 7.900000000000000000e+01
4.587244987487792969e+00 -1.466496467590332031e+00 9.273522347211837769e-02 1.340000000000000000e+02
4.599851608276367188e+00 -1.486098527908325195e+00 9.280434250831604004e-02 1.580000000000000000e+02
4.609529495239257812e+00 -1.504860281944274902e+00 9.286193549633026123e-02 1.490000000000000000e+02
4.627682209014892578e+00 -1.526515603065490723e+00 9.295409172773361206e-02 1.760000000000000000e+02
4.627720355987548828e+00 -1.542287349700927734e+00 9.297328442335128784e-02 1.760000000000000000e+02
4.683618545532226562e+00 -1.576905250549316406e+00 9.321902692317962646e-02 1.350000000000000000e+02
4.700532913208007812e+00 -1.598674893379211426e+00 9.330734610557556152e-02 8.800000000000000000e+01
4.700334548950195312e+00 -1.614713311195373535e+00 9.332653880119323730e-02 8.400000000000000000e+01
4.720865726470947266e+00 -1.637979149818420410e+00 9.343021363019943237e-02 5.700000000000000000e+01
4.729973793029785156e+00 -1.657416582107543945e+00 9.348780661821365356e-02 4.300000000000000000e+01
4.753147125244140625e+00 -1.681930541992187500e+00 9.360300004482269287e-02 5.600000000000000000e+01
4.835538387298583984e+00 -1.727805972099304199e+00 9.396009147167205811e-02 3.100000000000000000e+01
4.772837162017822266e+00 -1.721926212310791016e+00 9.372587502002716064e-02 3.900000000000000000e+01
4.825785160064697266e+00 -1.757786035537719727e+00 9.396393597126007080e-02 3.800000000000000000e+01
4.819431304931640625e+00 -1.772237896919250488e+00 9.396009147167205811e-02 2.600000000000000000e+01
4.871155738830566406e+00 -1.808249354362487793e+00 9.419431537389755249e-02 6.200000000000000000e+01
4.876821517944335938e+00 -1.827397108078002930e+00 9.424038976430892944e-02 6.000000000000000000e+01
4.871192455291748047e+00 -1.842350363731384277e+00 9.424038976430892944e-02 7.500000000000000000e+01
4.915964126586914062e+00 -1.876548767089843750e+00 9.444773942232131958e-02 8.900000000000000000e+01
4.918581962585449219e+00 -1.894858121871948242e+00 9.448229521512985229e-02 7.000000000000000000e+01
4.929521560668945312e+00 -1.916463017463684082e+00 9.455140680074691772e-02 6.300000000000000000e+01
4.939443588256835938e+00 -1.937787652015686035e+00 9.461668878793716431e-02 8.200000000000000000e+01
4.944632530212402344e+00 -1.957350254058837891e+00 9.466276317834854126e-02 7.000000000000000000e+01
5.005465030670166016e+00 -1.999222993850708008e+00 9.493922442197799683e-02 2.400000000000000000e+01
4.951078891754150391e+00 -1.995130062103271484e+00 9.473955631256103516e-02 3.800000000000000000e+01
5.073694705963134766e+00 -2.062670469284057617e+00 9.527327865362167358e-02 1.200000000000000000e+01
5.046988964080810547e+00 -2.069876909255981445e+00 9.518880397081375122e-02 2.600000000000000000e+01
5.052627086639404297e+00 -2.090322017669677734e+00 9.523871541023254395e-02 5.600000000000000000e+01
5.046190261840820312e+00 -2.105813264846801758e+00 9.523871541023254395e-02 6.600000000000000000e+01
5.077493190765380859e+00 -2.137194156646728516e+00 9.539614617824554443e-02 4.600000000000000000e+01
5.126138687133789062e+00 -2.176213026046752930e+00 9.562653303146362305e-02 2.800000000000000000e+01
5.131388187408447266e+00 -2.197047472000122070e+00 9.567644447088241577e-02 2.700000000000000000e+01
5.109935283660888672e+00 -2.206435918807983398e+00 9.561501443386077881e-02 4.800000000000000000e+01
5.145315170288085938e+00 -2.240470886230468750e+00 9.579163789749145508e-02 5.200000000000000000e+01
5.132923603057861328e+00 -2.253833293914794922e+00 9.576860070228576660e-02 4.600000000000000000e+01
4.664243221282958984e+00 -2.065081119537353516e+00 9.382954239845275879e-02 2.400000000000000000e+01
4.494441986083984375e+00 -2.006397008895874023e+00 9.314223378896713257e-02 7.600000000000000000e+01
4.481882572174072266e+00 -2.017302513122558594e+00 9.311535954475402832e-02 5.600000000000000000e+01
4.504810810089111328e+00 -2.044269800186157227e+00 9.323822706937789917e-02 7.100000000000000000e+01
4.486696720123291016e+00 -2.052671194076538086e+00 9.318830817937850952e-02 7.600000000000000000e+01
4.479470252990722656e+00 -2.066007614135742188e+00 9.318447113037109375e-02 7.800000000000000000e+01
4.477644443511962891e+00 -2.081849098205566406e+00 9.320367127656936646e-02 7.400000000000000000e+01
4.466709136962890625e+00 -2.093454122543334961e+00 9.318447113037109375e-02 6.300000000000000000e+01
4.474731445312500000e+00 -2.113983869552612305e+00 9.324590861797332764e-02 8.600000000000000000e+01
4.461905002593994141e+00 -2.124692201614379883e+00 9.321902692317962646e-02 9.000000000000000000e+01
4.471592426300048828e+00 -2.146161317825317383e+00 9.328814595937728882e-02 7.100000000000000000e+01
4.453285217285156250e+00 -2.154207706451416016e+00 9.323822706937789917e-02 7.500000000000000000e+01
4.457440853118896484e+00 -2.173119783401489258e+00 9.328430145978927612e-02 7.300000000000000000e+01
4.444470882415771484e+00 -2.183697223663330078e+00 9.325742721557617188e-02 7.000000000000000000e+01
4.431477546691894531e+00 -2.194215774536132812e+00 9.323054552078247070e-02 6.400000000000000000e+01
4.423830032348632812e+00 -2.207354307174682617e+00 9.322670847177505493e-02 7.100000000000000000e+01
4.421504020690917969e+00 -2.223162651062011719e+00 9.324590861797332764e-02 5.800000000000000000e+01
4.418230533599853516e+00 -2.238525390625000000e+00 9.326126426458358765e-02 5.200000000000000000e+01
4.402436256408691406e+00 -2.247521877288818359e+00 9.322287142276763916e-02 4.900000000000000000e+01
4.402633666992187500e+00 -2.264678001403808594e+00 9.325358271598815918e-02 5.400000000000000000e+01
4.397440910339355469e+00 -2.279094934463500977e+00 9.326126426458358765e-02 5.000000000000000000e+01
4.378904819488525391e+00 -2.286556959152221680e+00 9.321135282516479492e-02 6.300000000000000000e+01
4.386913299560546875e+00 -2.307896852493286133e+00 9.327662736177444458e-02 4.900000000000000000e+01
4.378045082092285156e+00 -2.320408105850219727e+00 9.326894581317901611e-02 6.000000000000000000e+01
4.388547420501708984e+00 -2.343250751495361328e+00 9.334573894739151001e-02 5.400000000000000000e+01
4.368128299713134766e+00 -2.349596500396728516e+00 9.328814595937728882e-02 5.100000000000000000e+01
4.386394977569580078e+00 -2.376805067062377930e+00 9.339949488639831543e-02 5.300000000000000000e+01
4.395758628845214844e+00 -2.399355888366699219e+00 9.347245097160339355e-02 5.800000000000000000e+01
4.383996009826660156e+00 -2.410421133041381836e+00 9.345325082540512085e-02 4.800000000000000000e+01
4.383577823638916016e+00 -2.427736282348632812e+00 9.348396956920623779e-02 5.600000000000000000e+01
4.379602432250976562e+00 -2.443122625350952148e+00 9.349932521581649780e-02 5.200000000000000000e+01
4.372958183288574219e+00 -2.457037448883056641e+00 9.350316971540451050e-02 5.400000000000000000e+01
4.366269588470458984e+00 -2.470934391021728516e+00 9.350700676441192627e-02 4.400000000000000000e+01
4.376911640167236328e+00 -2.494719028472900391e+00 9.358764439821243286e-02 4.000000000000000000e+01
4.387448787689208984e+00 -2.518592119216918945e+00 9.366827458143234253e-02 5.600000000000000000e+01
4.401342868804931641e+00 -2.544555425643920898e+00 9.376426786184310913e-02 4.900000000000000000e+01
4.391787528991699219e+00 -2.557039976119995117e+00 9.375658631324768066e-02 4.900000000000000000e+01
4.389097690582275391e+00 -2.573537111282348633e+00 9.377963095903396606e-02 4.200000000000000000e+01
4.407873153686523438e+00 -2.602755308151245117e+00 9.389866143465042114e-02 4.100000000000000000e+01
4.364629268646240234e+00 -2.595308065414428711e+00 9.374123066663742065e-02 5.400000000000000000e+01
4.378951549530029297e+00 -2.622045278549194336e+00 9.384106099605560303e-02 3.400000000000000000e+01
4.358042240142822266e+00 -2.627720832824707031e+00 9.378346800804138184e-02 5.000000000000000000e+01
4.342267036437988281e+00 -2.636407136917114258e+00 9.374891221523284912e-02 4.800000000000000000e+01
4.336718082427978516e+00 -2.651281595230102539e+00 9.376043081283569336e-02 5.500000000000000000e+01
4.342187881469726562e+00 -2.672962903976440430e+00 9.382186084985733032e-02 5.700000000000000000e+01
4.320368289947509766e+00 -2.677841424942016602e+00 9.376043081283569336e-02 5.700000000000000000e+01
4.318918704986572266e+00 -2.695319652557373047e+00 9.379114955663681030e-02 4.100000000000000000e+01
4.314015865325927734e+00 -2.710685729980468750e+00 9.380650520324707031e-02 5.400000000000000000e+01
4.305679321289062500e+00 -2.723908185958862305e+00 9.380650520324707031e-02 5.100000000000000000e+01
4.294772148132324219e+00 -2.735492944717407227e+00 9.379498660564422607e-02 3.900000000000000000e+01
4.289726257324218750e+00 -2.750815868377685547e+00 9.381034225225448608e-02 4.200000000000000000e+01
4.291347980499267578e+00 -2.770473241806030273e+00 9.385642409324645996e-02 3.900000000000000000e+01
4.285343170166015625e+00 -2.785260915756225586e+00 9.386794269084930420e-02 3.900000000000000000e+01
4.287655353546142578e+00 -2.805513858795166016e+00 9.391785413026809692e-02 3.900000000000000000e+01
4.286543369293212891e+00 -2.823606491088867188e+00 9.395241737365722656e-02 5.700000000000000000e+01
4.297861099243164062e+00 -2.850009679794311523e+00 9.404456615447998047e-02 5.000000000000000000e+01
4.286602020263671875e+00 -2.861516237258911133e+00 9.403304755687713623e-02 4.100000000000000000e+01
4.260374069213867188e+00 -2.862939357757568359e+00 9.395241737365722656e-02 4.700000000000000000e+01
4.256539821624755859e+00 -2.879358768463134766e+00 9.397545456886291504e-02 3.400000000000000000e+01
4.250165462493896484e+00 -2.894092798233032227e+00 9.398697316646575928e-02 4.900000000000000000e+01
4.238792419433593750e+00 -2.905422210693359375e+00 9.397545456886291504e-02 4.200000000000000000e+01
4.239735126495361328e+00 -2.925228595733642578e+00 9.402152895927429199e-02 4.300000000000000000e+01
4.247166633605957031e+00 -2.949632167816162109e+00 9.409832209348678589e-02 4.100000000000000000e+01
4.253668308258056641e+00 -2.973535776138305664e+00 9.417127817869186401e-02 5.100000000000000000e+01
4.256792068481445312e+00 -2.995204687118530273e+00 9.422887116670608521e-02 5.800000000000000000e+01
4.245134830474853516e+00 -3.006516218185424805e+00 9.421735256910324097e-02 5.200000000000000000e+01
4.239962577819824219e+00 -3.022428512573242188e+00 9.423655271530151367e-02 5.300000000000000000e+01
4.237981796264648438e+00 -3.040669679641723633e+00 9.427110850811004639e-02 4.300000000000000000e+01
7.928663253784179688e+00 -5.800489425659179688e+00 1.119645163416862488e-01 1.600000000000000000e+01
8.030003547668457031e+00 -5.912544250488281250e+00 1.125327944755554199e-01 1.100000000000000000e+01
7.935503005981445312e+00 -5.880587100982666016e+00 1.121680215001106262e-01 9.000000000000000000e+00
8.072929382324218750e+00 -6.020895004272460938e+00 1.129129230976104736e-01 1.100000000000000000e+01
8.118398666381835938e+00 -6.093661308288574219e+00 1.132201030850410461e-01 1.100000000000000000e+01
8.162697792053222656e+00 -6.166160106658935547e+00 1.135234385728836060e-01 1.300000000000000000e+01
8.140558242797851562e+00 -6.188753128051757812e+00 1.135080829262733459e-01 1.700000000000000000e+01
8.258925437927246094e+00 -6.318826675415039062e+00 1.141723543405532837e-01 5.000000000000000000e+00
8.902715682983398438e+00 -7.209676742553710938e+00 1.182309314608573914e-01 7.000000000000000000e+00
9.213218688964843750e+00 -7.555231571197509766e+00 1.199933588504791260e-01 2.700000000000000000e+01
9.324968338012695312e+00 -7.694848537445068359e+00 1.206653118133544922e-01 2.200000000000000000e+01
9.480566978454589844e+00 -7.872275352478027344e+00 1.215599626302719116e-01 2.700000000000000000e+01
9.576077461242675781e+00 -8.001354217529296875e+00 1.221589595079421997e-01 3.200000000000000000e+01
9.725225448608398438e+00 -8.176785469055175781e+00 1.230305731296539307e-01 2.800000000000000000e+01
9.752004623413085938e+00 -8.250505447387695312e+00 1.232916787266731262e-01 3.200000000000000000e+01
9.864462852478027344e+00 -8.397719383239746094e+00 1.239866614341735840e-01 2.300000000000000000e+01
9.931302070617675781e+00 -8.507314682006835938e+00 1.244551092386245728e-01 2.800000000000000000e+01
8.625440597534179688e+00 2.502016305923461914e+00 8.055631071329116821e-02 3.500000000000000000e+01
8.576169013977050781e+00 2.430775403976440430e+00 8.050953596830368042e-02 1.700000000000000000e+01
8.544105529785156250e+00 2.393393993377685547e+00 8.048091083765029907e-02 6.300000000000000000e+01
8.440575599670410156e+00 2.336491823196411133e+00 8.040063083171844482e-02 9.200000000000000000e+01
8.442881584167480469e+00 2.309266567230224609e+00 8.039713650941848755e-02 5.700000000000000000e+01
8.417102813720703125e+00 2.274484395980834961e+00 8.037339895963668823e-02 9.900000000000000000e+01
8.426939964294433594e+00 2.249424219131469727e+00 8.037550002336502075e-02 5.400000000000000000e+01
8.352577209472656250e+00 2.202147006988525391e+00 8.031685650348663330e-02 7.200000000000000000e+01
8.357357978820800781e+00 2.176007270812988281e+00 8.031545579433441162e-02 1.090000000000000000e+02
8.359151840209960938e+00 2.149112224578857422e+00 8.031196892261505127e-02 1.140000000000000000e+02
8.377337455749511719e+00 2.126408576965332031e+00 8.032034337520599365e-02 8.800000000000000000e+01
8.394492149353027344e+00 2.103370666503906250e+00 8.032802492380142212e-02 9.600000000000000000e+01
8.415467262268066406e+00 2.081207752227783203e+00 8.033849298954010010e-02 7.300000000000000000e+01
8.428612709045410156e+00 2.057039022445678711e+00 8.034338057041168213e-02 9.900000000000000000e+01
8.430994987487792969e+00 2.030234336853027344e+00 8.034058660268783569e-02 9.800000000000000000e+01
8.440102577209472656e+00 2.005052328109741211e+00 8.034268766641616821e-02 9.300000000000000000e+01
8.466660499572753906e+00 1.983939647674560547e+00 8.035734295845031738e-02 9.300000000000000000e+01
8.474656105041503906e+00 1.958405137062072754e+00 8.035874366760253906e-02 9.200000000000000000e+01
8.496224403381347656e+00 1.935950398445129395e+00 8.036991208791732788e-02 7.600000000000000000e+01
8.521637916564941406e+00 1.914258360862731934e+00 8.038387447595596313e-02 9.000000000000000000e+01
8.551879882812500000e+00 1.893509387969970703e+00 8.040132373571395874e-02 8.800000000000000000e+01
8.551786422729492188e+00 1.865984678268432617e+00 8.039713650941848755e-02 1.050000000000000000e+02
8.584845542907714844e+00 1.845623970031738281e+00 8.041668683290481567e-02 9.400000000000000000e+01
8.614925384521484375e+00 1.824456453323364258e+00 8.043413609266281128e-02 5.000000000000000000e+01
8.614608764648437500e+00 1.796792745590209961e+00 8.042994886636734009e-02 2.700000000000000000e+01
8.617141723632812500e+00 1.769751548767089844e+00 8.042785525321960449e-02 2.300000000000000000e+01
8.640173912048339844e+00 1.746872901916503906e+00 8.044042438268661499e-02 3.400000000000000000e+01
8.642550468444824219e+00 1.719771623611450195e+00 8.043833076953887939e-02 4.700000000000000000e+01
8.662506103515625000e+00 1.696130514144897461e+00 8.044879883527755737e-02 8.600000000000000000e+01
8.740333557128906250e+00 1.683541417121887207e+00 8.050046116113662720e-02 2.400000000000000000e+01
8.895136833190917969e+00 1.628597021102905273e+00 8.059959858655929565e-02 2.200000000000000000e+01
6.776830673217773438e+00 1.133653044700622559e+00 7.908325642347335815e-02 7.900000000000000000e+01
6.789157867431640625e+00 1.114314198493957520e+00 7.908953726291656494e-02 1.190000000000000000e+02
6.782671928405761719e+00 1.091890931129455566e+00 7.908255606889724731e-02 1.130000000000000000e+02
6.775124073028564453e+00 1.069362163543701172e+00 7.907487452030181885e-02 9.500000000000000000e+01
6.764537811279296875e+00 1.046431422233581543e+00 7.906510680913925171e-02 1.130000000000000000e+02
6.718280315399169922e+00 1.018182277679443359e+00 7.903019338846206665e-02 1.510000000000000000e+02
6.698621749877929688e+00 9.941900372505187988e-01 7.901413738727569580e-02 1.870000000000000000e+02
6.699661254882812500e+00 9.733467698097229004e-01 7.901274412870407104e-02 2.050000000000000000e+02
6.712516307830810547e+00 9.541950821876525879e-01 7.901972532272338867e-02 1.950000000000000000e+02
6.736212253570556641e+00 9.364880323410034180e-01 7.903438806533813477e-02 2.110000000000000000e+02
6.731126308441162109e+00 9.147401452064514160e-01 7.902880012989044189e-02 2.230000000000000000e+02
6.740840435028076172e+00 8.950061798095703125e-01 7.903368771076202393e-02 1.610000000000000000e+02
6.644383907318115234e+00 8.614661097526550293e-01 7.896387577056884766e-02 1.030000000000000000e+02
6.635090827941894531e+00 8.395712971687316895e-01 7.895549386739730835e-02 9.600000000000000000e+01
6.589004039764404297e+00 8.132103681564331055e-01 7.892128825187683105e-02 7.600000000000000000e+01
6.597424983978271484e+00 7.937083244323730469e-01 7.892547547817230225e-02 8.000000000000000000e+01
6.564073562622070312e+00 7.692745327949523926e-01 7.890034466981887817e-02 8.700000000000000000e+01
6.495860099792480469e+00 7.410865426063537598e-01 7.885077595710754395e-02 9.400000000000000000e+01
6.442444801330566406e+00 7.149785757064819336e-01 7.881168276071548462e-02 7.900000000000000000e+01
6.392908096313476562e+00 6.896342635154724121e-01 7.877537608146667480e-02 8.600000000000000000e+01
6.389026165008544922e+00 6.693927645683288574e-01 7.877118885517120361e-02 8.400000000000000000e+01
6.365182876586914062e+00 6.471591591835021973e-01 7.875303924083709717e-02 7.300000000000000000e+01
6.316384315490722656e+00 6.226263642311096191e-01 7.871743291616439819e-02 8.000000000000000000e+01
6.316274166107177734e+00 6.030550003051757812e-01 7.871603965759277344e-02 8.100000000000000000e+01
6.278264045715332031e+00 5.799955725669860840e-01 7.868811488151550293e-02 8.500000000000000000e+01
6.220251560211181641e+00 5.553969144821166992e-01 7.864622771739959717e-02 6.600000000000000000e+01
6.203992366790771484e+00 5.347655415534973145e-01 7.863365858793258667e-02 7.200000000000000000e+01
6.191651821136474609e+00 5.145702958106994629e-01 7.862388342618942261e-02 7.500000000000000000e+01
6.123424530029296875e+00 4.899905920028686523e-01 7.857501506805419922e-02 7.200000000000000000e+01
6.100969791412353516e+00 4.693616032600402832e-01 7.855825871229171753e-02 7.700000000000000000e+01
6.058500289916992188e+00 4.474026560783386230e-01 7.852753996849060059e-02 5.900000000000000000e+01
6.039894104003906250e+00 4.274021387100219727e-01 7.851357758045196533e-02 8.500000000000000000e+01
6.011245250701904297e+00 4.068450629711151123e-01 7.849263399839401245e-02 7.300000000000000000e+01
5.999492168426513672e+00 3.875632286071777344e-01 7.848355919122695923e-02 7.600000000000000000e+01
5.977696418762207031e+00 3.677435815334320068e-01 7.846750319004058838e-02 7.500000000000000000e+01
5.952840805053710938e+00 3.478864133358001709e-01 7.844935357570648193e-02 7.200000000000000000e+01
5.928918361663818359e+00 3.282404839992523193e-01 7.843189686536788940e-02 6.600000000000000000e+01
5.908926010131835938e+00 3.089533448219299316e-01 7.841723412275314331e-02 7.500000000000000000e+01
5.892866611480712891e+00 2.899884879589080811e-01 7.840536534786224365e-02 8.900000000000000000e+01
5.876746654510498047e+00 2.711250782012939453e-01 7.839350402355194092e-02 9.500000000000000000e+01
5.827597141265869141e+00 2.509445548057556152e-01 7.835859060287475586e-02 7.700000000000000000e+01
5.840330123901367188e+00 2.335437089204788208e-01 7.836697250604629517e-02 7.400000000000000000e+01
5.791052818298339844e+00 2.137816399335861206e-01 7.833206653594970703e-02 7.200000000000000000e+01
5.764697074890136719e+00 1.951014548540115356e-01 7.831321656703948975e-02 8.000000000000000000e+01
5.755273342132568359e+00 1.771073937416076660e-01 7.830623537302017212e-02 6.700000000000000000e+01
5.725800991058349609e+00 1.586197465658187866e-01 7.828529179096221924e-02 8.200000000000000000e+01
5.708266258239746094e+00 1.406097710132598877e-01 7.827272266149520874e-02 1.050000000000000000e+02
5.678677558898925781e+00 1.224505379796028137e-01 7.825177907943725586e-02 7.700000000000000000e+01
5.658030033111572266e+00 1.046403422951698303e-01 7.823711633682250977e-02 8.600000000000000000e+01
5.622328758239746094e+00 8.672708272933959961e-02 7.821198552846908569e-02 8.800000000000000000e+01
5.617568969726562500e+00 6.941597908735275269e-02 7.820849865674972534e-02 9.300000000000000000e+01
5.528759002685546875e+00 5.135720968246459961e-02 7.814636081457138062e-02 8.100000000000000000e+01
5.543890476226806641e+00 3.448782861232757568e-02 7.815683633089065552e-02 7.700000000000000000e+01
5.500970363616943359e+00 1.734498329460620880e-02 7.812681794166564941e-02 9.400000000000000000e+01
5.480997562408447266e+00 4.670724156312644482e-04 7.811285555362701416e-02 8.400000000000000000e+01
5.446973323822021484e+00 -1.624593697488307953e-02 7.808911800384521484e-02 8.100000000000000000e+01
5.434898376464843750e+00 -3.288396447896957397e-02 7.808073610067367554e-02 7.900000000000000000e+01
5.422772407531738281e+00 -4.944805055856704712e-02 7.807236164808273315e-02 8.700000000000000000e+01
5.387597560882568359e+00 -6.565705686807632446e-02 7.804792374372482300e-02 7.900000000000000000e+01
5.369372844696044922e+00 -8.191053569316864014e-02 7.803536206483840942e-02 8.200000000000000000e+01
5.335102081298828125e+00 -9.775917977094650269e-02 7.801162451505661011e-02 7.900000000000000000e+01
5.311782360076904297e+00 -1.136339381337165833e-01 7.799556851387023926e-02 8.200000000000000000e+01
5.305410385131835938e+00 -1.297827959060668945e-01 7.799137383699417114e-02 9.500000000000000000e+01
5.271000385284423828e+00 -1.451221406459808350e-01 7.796764373779296875e-02 9.500000000000000000e+01
5.241543769836425781e+00 -1.604046672582626343e-01 7.794739305973052979e-02 8.800000000000000000e+01
5.235030651092529297e+00 -1.762826144695281982e-01 7.794320583343505859e-02 1.010000000000000000e+02
5.217476367950439453e+00 -1.917178481817245483e-01 7.793133705854415894e-02 8.300000000000000000e+01
5.197878837585449219e+00 -2.069673836231231689e-01 7.791807502508163452e-02 1.060000000000000000e+02
5.171243190765380859e+00 -2.217983007431030273e-01 7.789992541074752808e-02 8.700000000000000000e+01
5.139571189880371094e+00 -2.362379878759384155e-01 7.787828147411346436e-02 1.070000000000000000e+02
5.141818523406982422e+00 -2.521519064903259277e-01 7.788037508726119995e-02 9.900000000000000000e+01
5.121047973632812500e+00 -2.668840587139129639e-01 7.786641269922256470e-02 9.300000000000000000e+01
5.106226444244384766e+00 -2.818219661712646484e-01 7.785663753747940063e-02 1.070000000000000000e+02
5.088366508483886719e+00 -2.964968681335449219e-01 7.784476876258850098e-02 1.000000000000000000e+02
5.044513702392578125e+00 -3.094719052314758301e-01 7.781475037336349487e-02 1.360000000000000000e+02
5.036555290222167969e+00 -3.244965076446533203e-01 7.780986279249191284e-02 1.250000000000000000e+02
5.014583587646484375e+00 -3.385317325592041016e-01 7.779520004987716675e-02 1.210000000000000000e+02
4.991576194763183594e+00 -3.523647785186767578e-01 7.777984440326690674e-02 1.200000000000000000e+02
4.984488010406494141e+00 -3.672359883785247803e-01 7.777565717697143555e-02 1.180000000000000000e+02
4.957414150238037109e+00 -3.805356323719024658e-01 7.775750011205673218e-02 1.340000000000000000e+02
4.950242519378662109e+00 -3.952652215957641602e-01 7.775331288576126099e-02 1.260000000000000000e+02
4.922098636627197266e+00 -4.082179665565490723e-01 7.773446291685104370e-02 1.520000000000000000e+02
4.912852764129638672e+00 -4.226309061050415039e-01 7.772888243198394775e-02 1.500000000000000000e+02
4.895596027374267578e+00 -4.362805485725402832e-01 7.771770656108856201e-02 1.540000000000000000e+02
4.871332168579101562e+00 -4.491853117942810059e-01 7.770165055990219116e-02 1.680000000000000000e+02
4.839070796966552734e+00 -4.611860513687133789e-01 7.768000662326812744e-02 1.510000000000000000e+02
4.802801609039306641e+00 -4.726012349128723145e-01 7.765557616949081421e-02 1.680000000000000000e+02
4.790385246276855469e+00 -4.862226247787475586e-01 7.764789462089538574e-02 1.730000000000000000e+02
4.776936054229736328e+00 -4.996682107448577881e-01 7.763952016830444336e-02 1.720000000000000000e+02
4.771403789520263672e+00 -5.138928294181823730e-01 7.763672620058059692e-02 1.890000000000000000e+02
4.751914501190185547e+00 -5.265458226203918457e-01 7.762415707111358643e-02 2.250000000000000000e+02
4.731398582458496094e+00 -5.389709472656250000e-01 7.761089503765106201e-02 2.180000000000000000e+02
4.716811180114746094e+00 -5.519726872444152832e-01 7.760182023048400879e-02 2.040000000000000000e+02
4.692259788513183594e+00 -5.636969208717346191e-01 7.758576422929763794e-02 1.880000000000000000e+02
4.688523292541503906e+00 -5.778451561927795410e-01 7.758436352014541626e-02 2.340000000000000000e+02
4.682759761810302734e+00 -5.917250514030456543e-01 7.758157700300216675e-02 2.070000000000000000e+02
4.628361701965332031e+00 -5.992812514305114746e-01 7.754456996917724609e-02 2.610000000000000000e+02
4.661197185516357422e+00 -6.180800199508666992e-01 7.756900787353515625e-02 2.600000000000000000e+02
4.640451908111572266e+00 -6.298214793205261230e-01 7.755574584007263184e-02 2.410000000000000000e+02
4.616706848144531250e+00 -6.410287618637084961e-01 7.754038274288177490e-02 2.600000000000000000e+02
4.625609397888183594e+00 -6.567362546920776367e-01 7.754806429147720337e-02 2.600000000000000000e+02
4.599821567535400391e+00 -6.674769520759582520e-01 7.753130793571472168e-02 2.730000000000000000e+02
4.583903789520263672e+00 -6.795324087142944336e-01 7.752153277397155762e-02 3.060000000000000000e+02
4.564000129699707031e+00 -6.908975839614868164e-01 7.750897109508514404e-02 3.070000000000000000e+02
4.540117263793945312e+00 -7.015361785888671875e-01 7.749360799789428711e-02 3.020000000000000000e+02
4.522138595581054688e+00 -7.129693627357482910e-01 7.748243957757949829e-02 2.850000000000000000e+02
4.503145694732666016e+00 -7.241400480270385742e-01 7.747057080268859863e-02 3.320000000000000000e+02
4.490047931671142578e+00 -7.361719608306884766e-01 7.746288925409317017e-02 2.970000000000000000e+02
4.484809398651123047e+00 -7.494491934776306152e-01 7.746079564094543457e-02 3.420000000000000000e+02
4.469673633575439453e+00 -7.610223293304443359e-01 7.745172083377838135e-02 3.080000000000000000e+02
4.455494403839111328e+00 -7.726806402206420898e-01 7.744334638118743896e-02 3.030000000000000000e+02
4.437346458435058594e+00 -7.835633754730224609e-01 7.743217051029205322e-02 3.040000000000000000e+02
4.415237426757812500e+00 -7.936342954635620117e-01 7.741820812225341797e-02 2.990000000000000000e+02
4.399010658264160156e+00 -8.046567440032958984e-01 7.740844041109085083e-02 3.320000000000000000e+02
4.392588615417480469e+00 -8.174169659614562988e-01 7.740564644336700439e-02 3.220000000000000000e+02
4.381217002868652344e+00 -8.292153477668762207e-01 7.739935815334320068e-02 3.130000000000000000e+02
4.357048988342285156e+00 -8.384945392608642578e-01 7.738400250673294067e-02 3.030000000000000000e+02
4.325995922088623047e+00 -8.462890386581420898e-01 7.736375927925109863e-02 3.320000000000000000e+02
4.322398185729980469e+00 -8.593620061874389648e-01 7.736305892467498779e-02 3.170000000000000000e+02
4.292295932769775391e+00 -8.670735955238342285e-01 7.734350860118865967e-02 2.940000000000000000e+02
4.286676883697509766e+00 -8.796349763870239258e-01 7.734141498804092407e-02 3.100000000000000000e+02
4.276126384735107422e+00 -8.911496996879577637e-01 7.733583450317382812e-02 3.160000000000000000e+02
4.273372173309326172e+00 -9.042645096778869629e-01 7.733583450317382812e-02 3.560000000000000000e+02
4.261778831481933594e+00 -9.154802560806274414e-01 7.732954621315002441e-02 3.350000000000000000e+02
4.253087997436523438e+00 -9.272725582122802734e-01 7.732535898685455322e-02 3.920000000000000000e+02
4.234601020812988281e+00 -9.368596076965332031e-01 7.731419056653976440e-02 3.490000000000000000e+02
4.227803707122802734e+00 -9.489705562591552734e-01 7.731139659881591797e-02 3.630000000000000000e+02
4.222922325134277344e+00 -9.614927768707275391e-01 7.731000334024429321e-02 2.990000000000000000e+02
4.206311702728271484e+00 -9.712935686111450195e-01 7.730022817850112915e-02 2.080000000000000000e+02
4.214996337890625000e+00 -9.869300127029418945e-01 7.730860263109207153e-02 2.740000000000000000e+02
4.248920440673828125e+00 -1.008634924888610840e+00 7.733513414859771729e-02 3.090000000000000000e+02
4.296362400054931641e+00 -1.033833146095275879e+00 7.737143337726593018e-02 3.190000000000000000e+02
4.301914215087890625e+00 -1.049142003059387207e+00 7.737772166728973389e-02 3.550000000000000000e+02
4.304500102996826172e+00 -1.063774943351745605e+00 7.738190889358520508e-02 3.070000000000000000e+02
4.316736698150634766e+00 -1.080862760543823242e+00 7.739307731389999390e-02 2.840000000000000000e+02
4.316308498382568359e+00 -1.094838976860046387e+00 7.739517092704772949e-02 2.110000000000000000e+02
4.328425884246826172e+00 -1.112058043479919434e+00 7.740633934736251831e-02 2.640000000000000000e+02
4.349187850952148438e+00 -1.131628394126892090e+00 7.742379605770111084e-02 6.300000000000000000e+01
4.364068508148193359e+00 -1.149807572364807129e+00 7.743705809116363525e-02 8.000000000000000000e+01
4.368249893188476562e+00 -1.165253162384033203e+00 7.744264602661132812e-02 1.010000000000000000e+02
4.385893344879150391e+00 -1.184385657310485840e+00 7.745800167322158813e-02 2.350000000000000000e+02
4.398637294769287109e+00 -1.202318668365478516e+00 7.746987044811248779e-02 1.860000000000000000e+02
4.398783206939697266e+00 -1.216874480247497559e+00 7.747266441583633423e-02 1.710000000000000000e+02
4.388288497924804688e+00 -1.228476762771606445e+00 7.746777683496475220e-02 1.650000000000000000e+02
4.450886249542236328e+00 -1.260741233825683594e+00 7.751595228910446167e-02 1.970000000000000000e+02
4.477758884429931641e+00 -1.283207058906555176e+00 7.753828912973403931e-02 2.530000000000000000e+02
4.481484413146972656e+00 -1.299166321754455566e+00 7.754387706518173218e-02 2.050000000000000000e+02
4.485154151916503906e+00 -1.315160512924194336e+00 7.754945755004882812e-02 1.980000000000000000e+02
4.513694763183593750e+00 -1.338582754135131836e+00 7.757319509983062744e-02 1.320000000000000000e+02
4.519145011901855469e+00 -1.355297207832336426e+00 7.758017629384994507e-02 1.520000000000000000e+02
4.525492191314697266e+00 -1.372347831726074219e+00 7.758785784244537354e-02 1.820000000000000000e+02
4.550898551940917969e+00 -1.395313620567321777e+00 7.760950177907943726e-02 1.390000000000000000e+02
4.567609786987304688e+00 -1.415783166885375977e+00 7.762485742568969727e-02 8.000000000000000000e+01
4.434422016143798828e+00 -1.389420986175537109e+00 7.753060758113861084e-02 2.800000000000000000e+01
4.562650203704833984e+00 -1.444990634918212891e+00 7.762765139341354370e-02 9.800000000000000000e+01
4.555338382720947266e+00 -1.458067297935485840e+00 7.762555778026580811e-02 8.600000000000000000e+01
4.599367618560791016e+00 -1.487733721733093262e+00 7.766116410493850708e-02 1.440000000000000000e+02
4.612841129302978516e+00 -1.507740855216979980e+00 7.767442613840103149e-02 1.440000000000000000e+02
4.629084110260009766e+00 -1.528785705566406250e+00 7.768978178501129150e-02 1.450000000000000000e+02
4.639549255371093750e+00 -1.548044919967651367e+00 7.770095765590667725e-02 1.600000000000000000e+02
4.674577236175537109e+00 -1.575688481330871582e+00 7.773027569055557251e-02 1.180000000000000000e+02
4.703799247741699219e+00 -1.601627349853515625e+00 7.775540649890899658e-02 7.700000000000000000e+01
4.698863506317138672e+00 -1.616050839424133301e+00 7.775540649890899658e-02 1.000000000000000000e+02
4.722222328186035156e+00 -1.640303850173950195e+00 7.777635008096694946e-02 5.700000000000000000e+01
4.809641361236572266e+00 -1.687227129936218262e+00 7.784476876258850098e-02 2.700000000000000000e+01
4.715838909149169922e+00 -1.670583844184875488e+00 7.777914404869079590e-02 6.400000000000000000e+01
4.722931861877441406e+00 -1.689422845840454102e+00 7.778821885585784912e-02 6.300000000000000000e+01
4.808957099914550781e+00 -1.736858010292053223e+00 7.785593718290328979e-02 3.000000000000000000e+01
4.758511066436767578e+00 -1.735158324241638184e+00 7.782243192195892334e-02 3.000000000000000000e+01
4.823546886444091797e+00 -1.775660753250122070e+00 7.787478715181350708e-02 2.700000000000000000e+01
4.875255584716796875e+00 -1.811701297760009766e+00 7.791737467050552368e-02 8.600000000000000000e+01
4.876228332519531250e+00 -1.829108476638793945e+00 7.792226225137710571e-02 6.100000000000000000e+01
4.901455402374267578e+00 -1.855745673179626465e+00 7.794529944658279419e-02 5.100000000000000000e+01
4.906948089599609375e+00 -1.875058174133300781e+00 7.795368134975433350e-02 6.600000000000000000e+01
4.927297115325927734e+00 -1.900179266929626465e+00 7.797322422266006470e-02 3.500000000000000000e+01
4.927035331726074219e+00 -1.917463302612304688e+00 7.797741144895553589e-02 2.800000000000000000e+01
4.917406558990478516e+00 -1.931107878684997559e+00 7.797462493181228638e-02 3.200000000000000000e+01
4.921685218811035156e+00 -1.950237870216369629e+00 7.798229902982711792e-02 2.500000000000000000e+01
4.966747760772705078e+00 -1.985747814178466797e+00 7.802069932222366333e-02 3.300000000000000000e+01
4.955067634582519531e+00 -1.998731493949890137e+00 7.801651209592819214e-02 2.800000000000000000e+01
4.984109401702880859e+00 -2.028248548507690430e+00 7.804303616285324097e-02 3.000000000000000000e+01
5.012090682983398438e+00 -2.057582378387451172e+00 7.806886732578277588e-02 4.000000000000000000e+01
5.056569099426269531e+00 -2.093994379043579102e+00 7.810726761817932129e-02 5.300000000000000000e+01
5.064884662628173828e+00 -2.115665435791015625e+00 7.811843603849411011e-02 6.000000000000000000e+01
5.091545104980468750e+00 -2.145172834396362305e+00 7.814356684684753418e-02 4.200000000000000000e+01
5.123594284057617188e+00 -2.177210330963134766e+00 7.817289233207702637e-02 3.300000000000000000e+01
5.115971565246582031e+00 -2.192525148391723633e+00 7.817219197750091553e-02 4.300000000000000000e+01
