# .PCD v.7 - Point Cloud Data file format
VERSION .7
FIELDS x y z intensity
SIZE 4 4 4 4
TYPE F F F F
COUNT 1 1 1 1
WIDTH 469
HEIGHT 1
VIEWPOINT 0 0 0 1 0 0 0
POINTS 469
DATA ascii
9.739905357360839844e+00 -5.105522871017456055e-01 -1.166455388069152832e+00 2.700000000000000000e+01
9.164815902709960938e+00 -5.086358189582824707e-01 -1.093285918235778809e+00 8.100000000000000000e+01
9.255309104919433594e+00 -5.421403050422668457e-01 -1.105038523674011230e+00 5.000000000000000000e+01
9.192214965820312500e+00 -5.667511820793151855e-01 -1.097203493118286133e+00 1.120000000000000000e+02
9.114210128784179688e+00 -5.900196433067321777e-01 -1.087472796440124512e+00 3.280000000000000000e+02
9.262793540954589844e+00 -6.281727552413940430e-01 -1.106681346893310547e+00 8.700000000000000000e+01
9.148018836975097656e+00 -6.485961079597473145e-01 -1.092275023460388184e+00 3.800000000000000000e+01
7.922243118286132812e+00 -5.861887335777282715e-01 -9.359526634216308594e-01 2.100000000000000000e+01
7.805676937103271484e+00 -6.016552448272705078e-01 -9.212934970855712891e-01 2.900000000000000000e+01
7.679203510284423828e+00 -6.156199574470520020e-01 -9.053706526756286621e-01 1.900000000000000000e+01
7.537890911102294922e+00 -6.275808811187744141e-01 -8.875521421432495117e-01 1.600000000000000000e+01
7.589298725128173828e+00 -6.553084850311279297e-01 -8.943762779235839844e-01 1.500000000000000000e+01
7.362966060638427734e+00 -6.585443019866943359e-01 -8.656898140907287598e-01 1.700000000000000000e+01
7.066555976867675781e+00 -6.539130210876464844e-01 -8.280308842658996582e-01 2.000000000000000000e+01
7.055629253387451172e+00 -6.747405529022216797e-01 -8.268935680389404297e-01 1.100000000000000000e+01
7.037730693817138672e+00 -6.948254704475402832e-01 -8.248715996742248535e-01 2.100000000000000000e+01
6.989182472229003906e+00 -7.116938829421997070e-01 -8.189321160316467285e-01 1.600000000000000000e+01
6.683101177215576172e+00 -7.012709379196166992e-01 -7.800095081329345703e-01 9.700000000000000000e+01
6.601031780242919922e+00 -7.131466865539550781e-01 -7.697733640670776367e-01 5.200000000000000000e+01
6.493319511413574219e+00 -7.216784954071044922e-01 -7.562515735626220703e-01 4.600000000000000000e+01
6.422084331512451172e+00 -7.337196469306945801e-01 -7.474055290222167969e-01 2.900000000000000000e+01
6.306501388549804688e+00 -7.401309013366699219e-01 -7.328727245330810547e-01 9.600000000000000000e+01
6.286473274230957031e+00 -7.573412656784057617e-01 -7.305980324745178223e-01 3.500000000000000000e+01
6.032087326049804688e+00 -7.454971671104431152e-01 -6.982467770576477051e-01 2.200000000000000000e+01
5.968756198883056641e+00 -7.562740445137023926e-01 -6.904116868972778320e-01 2.300000000000000000e+01
5.887708663940429688e+00 -7.643720507621765137e-01 -6.803019046783447266e-01 1.800000000000000000e+01
5.780118465423583984e+00 -7.684525251388549805e-01 -6.667801141738891602e-01 2.900000000000000000e+01
5.717774391174316406e+00 -7.780286669731140137e-01 -6.590713858604431152e-01 2.400000000000000000e+01
5.636758804321289062e+00 -7.846326828002929688e-01 -6.489616036415100098e-01 1.700000000000000000e+01
5.535133361816406250e+00 -7.878134846687316895e-01 -6.361980438232421875e-01 2.200000000000000000e+01
5.475753784179687500e+00 -7.965145111083984375e-01 -6.288684606552124023e-01 1.900000000000000000e+01
5.423242092132568359e+00 -8.058786988258361816e-01 -6.224234700202941895e-01 1.900000000000000000e+01
5.328551769256591797e+00 -8.085330724716186523e-01 -6.105445027351379395e-01 2.600000000000000000e+01
5.316242694854736328e+00 -8.233597278594970703e-01 -6.092807650566101074e-01 2.800000000000000000e+01
5.298014163970947266e+00 -8.371900320053100586e-01 -6.072588562965393066e-01 2.300000000000000000e+01
5.121094703674316406e+00 -8.253615498542785645e-01 -5.847645998001098633e-01 3.400000000000000000e+01
5.028482437133789062e+00 -8.262801170349121094e-01 -5.731383562088012695e-01 4.100000000000000000e+01
4.999507427215576172e+00 -8.372821211814880371e-01 -5.697263479232788086e-01 5.200000000000000000e+01
5.016472816467285156e+00 -8.559514880180358887e-01 -5.722537636756896973e-01 3.600000000000000000e+01
4.844741344451904297e+00 -8.419708013534545898e-01 -5.503913760185241699e-01 7.700000000000000000e+01
4.835297584533691406e+00 -8.556210398674011230e-01 -5.495067834854125977e-01 7.400000000000000000e+01
4.769190788269042969e+00 -8.590281009674072266e-01 -5.412926077842712402e-01 9.200000000000000000e+01
4.698230743408203125e+00 -8.611440062522888184e-01 -5.324465632438659668e-01 8.600000000000000000e+01
4.659484386444091797e+00 -8.688297867774963379e-01 -5.277707576751708984e-01 1.010000000000000000e+02
4.642177581787109375e+00 -8.803499937057495117e-01 -5.258752107620239258e-01 7.200000000000000000e+01
4.484579086303710938e+00 -8.647415637969970703e-01 -5.057820081710815430e-01 1.460000000000000000e+02
4.456594467163085938e+00 -8.735378384590148926e-01 -5.024963617324829102e-01 1.470000000000000000e+02
4.418869495391845703e+00 -8.802336454391479492e-01 -4.979469776153564453e-01 1.580000000000000000e+02
4.348087787628173828e+00 -8.800195455551147461e-01 -4.891009330749511719e-01 1.490000000000000000e+02
4.316216945648193359e+00 -8.873656392097473145e-01 -4.853097498416900635e-01 1.700000000000000000e+02
4.266862869262695312e+00 -8.908771276473999023e-01 -4.792439043521881104e-01 1.960000000000000000e+02
4.291282176971435547e+00 -9.097205400466918945e-01 -4.827823042869567871e-01 1.350000000000000000e+02
4.155607700347900391e+00 -8.943054676055908203e-01 -4.654693305492401123e-01 1.570000000000000000e+02
4.111170768737792969e+00 -8.979533910751342773e-01 -4.600353240966796875e-01 1.970000000000000000e+02
4.089025974273681641e+00 -9.062713980674743652e-01 -4.575078785419464111e-01 2.020000000000000000e+02
4.065901756286621094e+00 -9.142445325851440430e-01 -4.548540711402893066e-01 2.170000000000000000e+02
4.041800022125244141e+00 -9.218638539314270020e-01 -4.520739018917083740e-01 2.070000000000000000e+02
3.953901529312133789e+00 -9.145970940589904785e-01 -4.409531354904174805e-01 2.110000000000000000e+02
3.925966024398803711e+00 -9.208367466926574707e-01 -4.376674592494964600e-01 2.180000000000000000e+02
3.893204450607299805e+00 -9.257668256759643555e-01 -4.337499439716339111e-01 2.530000000000000000e+02
3.838268518447875977e+00 -9.251611828804016113e-01 -4.269258379936218262e-01 2.220000000000000000e+02
3.797828674316406250e+00 -9.277564883232116699e-01 -4.219973385334014893e-01 2.410000000000000000e+02
3.764150142669677734e+00 -9.317801594734191895e-01 -4.179534316062927246e-01 2.080000000000000000e+02
3.735293865203857422e+00 -9.368118643760681152e-01 -4.145413637161254883e-01 2.490000000000000000e+02
3.714134454727172852e+00 -9.436285495758056641e-01 -4.121403098106384277e-01 2.090000000000000000e+02
3.683361053466796875e+00 -9.478533267974853516e-01 -4.084755182266235352e-01 2.150000000000000000e+02
3.627638339996337891e+00 -9.453972578048706055e-01 -4.015250504016876221e-01 2.260000000000000000e+02
3.596904516220092773e+00 -9.491858482360839844e-01 -3.978602588176727295e-01 2.220000000000000000e+02
3.572890520095825195e+00 -9.545862674713134766e-01 -3.950800597667694092e-01 2.100000000000000000e+02
3.550792932510375977e+00 -9.603660702705383301e-01 -3.925526440143585205e-01 2.390000000000000000e+02
3.493291378021240234e+00 -9.563328027725219727e-01 -3.853494226932525635e-01 1.810000000000000000e+02
3.464528799057006836e+00 -9.598978757858276367e-01 -3.819373846054077148e-01 1.790000000000000000e+02
3.423360109329223633e+00 -9.598158597946166992e-01 -3.768824934959411621e-01 2.300000000000000000e+02
3.396540164947509766e+00 -9.635492563247680664e-01 -3.737231791019439697e-01 1.740000000000000000e+02
3.339216947555541992e+00 -9.583746194839477539e-01 -3.665199875831604004e-01 1.690000000000000000e+02
3.353409290313720703e+00 -9.735906124114990234e-01 -3.687946796417236328e-01 1.660000000000000000e+02
3.283778190612792969e+00 -9.643186926841735840e-01 -3.599486351013183594e-01 1.630000000000000000e+02
3.260833978652954102e+00 -9.684606790542602539e-01 -3.572948276996612549e-01 1.330000000000000000e+02
3.238845348358154297e+00 -9.727562665939331055e-01 -3.547673821449279785e-01 1.380000000000000000e+02
3.201673746109008789e+00 -9.723162651062011719e-01 -3.502179682254791260e-01 1.450000000000000000e+02
3.181605815887451172e+00 -9.768958687782287598e-01 -3.479432761669158936e-01 1.220000000000000000e+02
3.148275613784790039e+00 -9.772464632987976074e-01 -3.438993692398071289e-01 1.380000000000000000e+02
3.128225326538085938e+00 -9.815575480461120605e-01 -3.416246771812438965e-01 1.080000000000000000e+02
3.105341196060180664e+00 -9.848557114601135254e-01 -3.389708697795867920e-01 1.160000000000000000e+02
3.083411216735839844e+00 -9.883252978324890137e-01 -3.364434242248535156e-01 1.280000000000000000e+02
3.077533483505249023e+00 -9.968638420104980469e-01 -3.360643088817596436e-01 1.100000000000000000e+02
3.053718566894531250e+00 -9.995154142379760742e-01 -3.332841098308563232e-01 9.200000000000000000e+01
3.044044733047485352e+00 -1.006700158119201660e+00 -3.323995172977447510e-01 1.170000000000000000e+02
3.000483036041259766e+00 -1.002523422241210938e+00 -3.269655108451843262e-01 1.070000000000000000e+02
2.979534387588500977e+00 -1.005699276924133301e+00 -3.245644271373748779e-01 9.500000000000000000e+01
2.955777883529663086e+00 -1.007796168327331543e+00 -3.217842578887939453e-01 1.000000000000000000e+02
2.929222583770751953e+00 -1.008788228034973145e+00 -3.186249434947967529e-01 1.080000000000000000e+02
2.877391099929809570e+00 -1.000832080841064453e+00 -3.120535910129547119e-01 1.020000000000000000e+02
2.891154527664184570e+00 -1.015570044517517090e+00 -3.143283128738403320e-01 1.150000000000000000e+02
2.835667371749877930e+00 -1.005872607231140137e+00 -3.072514533996582031e-01 9.400000000000000000e+01
2.810153484344482422e+00 -1.006543278694152832e+00 -3.042185306549072266e-01 9.400000000000000000e+01
2.805186271667480469e+00 -1.014485597610473633e+00 -3.039657771587371826e-01 9.000000000000000000e+01
2.784355163574218750e+00 -1.016625761985778809e+00 -3.015647232532501221e-01 9.800000000000000000e+01
2.772845745086669922e+00 -1.022076964378356934e+00 -3.004273772239685059e-01 9.200000000000000000e+01
2.739014625549316406e+00 -1.019168496131896973e+00 -2.962570786476135254e-01 1.030000000000000000e+02
2.721015691757202148e+00 -1.021988749504089355e+00 -2.942351400852203369e-01 9.300000000000000000e+01
2.684472799301147461e+00 -1.017678737640380859e+00 -2.896857261657714844e-01 1.080000000000000000e+02
2.672999143600463867e+00 -1.022720932960510254e+00 -2.885483801364898682e-01 1.180000000000000000e+02
2.665221691131591797e+00 -1.029131054878234863e+00 -2.879165410995483398e-01 9.700000000000000000e+01
2.644489049911499023e+00 -1.030462980270385742e+00 -2.855154573917388916e-01 9.400000000000000000e+01
2.636698961257934570e+00 -1.036757111549377441e+00 -2.848835885524749756e-01 8.800000000000000000e+01
2.595698595046997070e+00 -1.029849290847778320e+00 -2.797023355960845947e-01 8.600000000000000000e+01
2.575027704238891602e+00 -1.030806660652160645e+00 -2.773012816905975342e-01 1.070000000000000000e+02
2.561734676361083984e+00 -1.034617424011230469e+00 -2.759111821651458740e-01 1.000000000000000000e+02
2.542011499404907227e+00 -1.035737395286560059e+00 -2.736364901065826416e-01 8.100000000000000000e+01
2.525058269500732422e+00 -1.037876963615417480e+00 -2.717409133911132812e-01 9.800000000000000000e+01
2.510865211486816406e+00 -1.041061758995056152e+00 -2.702244222164154053e-01 1.050000000000000000e+02
2.483863353729248047e+00 -1.038813114166259766e+00 -2.669387459754943848e-01 9.600000000000000000e+01
2.468781709671020508e+00 -1.041418671607971191e+00 -2.652959227561950684e-01 9.600000000000000000e+01
2.444578886032104492e+00 -1.040059566497802734e+00 -2.623893618583679199e-01 1.000000000000000000e+02
2.424054622650146484e+00 -1.040125966072082520e+00 -2.599883079528808594e-01 9.400000000000000000e+01
2.426315069198608398e+00 -1.049920558929443359e+00 -2.607465386390686035e-01 8.700000000000000000e+01
2.406715631484985352e+00 -1.050221204757690430e+00 -2.584718167781829834e-01 1.000000000000000000e+02
2.400758266448974609e+00 -1.056401848793029785e+00 -2.580927014350891113e-01 8.100000000000000000e+01
2.392065048217773438e+00 -1.061349511146545410e+00 -2.573344707489013672e-01 9.300000000000000000e+01
2.377930641174316406e+00 -1.063824176788330078e+00 -2.558180093765258789e-01 9.700000000000000000e+01
2.364708185195922852e+00 -1.066629886627197266e+00 -2.544279098510742188e-01 1.030000000000000000e+02
2.346975326538085938e+00 -1.067312240600585938e+00 -2.524059712886810303e-01 9.400000000000000000e+01
2.324751853942871094e+00 -1.065829634666442871e+00 -2.497521489858627319e-01 1.050000000000000000e+02
2.272841930389404297e+00 -1.050492644309997559e+00 -2.429280579090118408e-01 1.130000000000000000e+02
2.262414216995239258e+00 -1.054110527038574219e+00 -2.419170886278152466e-01 9.000000000000000000e+01
2.243006229400634766e+00 -1.053459167480468750e+00 -2.396423816680908203e-01 1.210000000000000000e+02
2.226313591003417969e+00 -1.053971529006958008e+00 -2.377468049526214600e-01 1.130000000000000000e+02
2.226650953292846680e+00 -1.062505006790161133e+00 -2.382522970438003540e-01 1.040000000000000000e+02
2.198347330093383789e+00 -1.057297706604003906e+00 -2.347138673067092896e-01 1.290000000000000000e+02
2.177238702774047852e+00 -1.055387020111083984e+00 -2.321864366531372070e-01 1.190000000000000000e+02
2.183795928955078125e+00 -1.066849350929260254e+00 -2.335765212774276733e-01 1.030000000000000000e+02
2.172502040863037109e+00 -1.069602370262145996e+00 -2.324391752481460571e-01 9.700000000000000000e+01
2.150547504425048828e+00 -1.067007660865783691e+00 -2.297853678464889526e-01 1.060000000000000000e+02
2.144601583480834961e+00 -1.072270154953002930e+00 -2.294062376022338867e-01 9.300000000000000000e+01
2.125354051589965820e+00 -1.070813894271850586e+00 -2.271315455436706543e-01 9.400000000000000000e+01
2.122058868408203125e+00 -1.077329277992248535e+00 -2.271315455436706543e-01 1.190000000000000000e+02
2.108144760131835938e+00 -1.078415632247924805e+00 -2.256150841712951660e-01 1.110000000000000000e+02
2.092480659484863281e+00 -1.078518271446228027e+00 -2.238458693027496338e-01 8.900000000000000000e+01
2.053943872451782227e+00 -1.066653251647949219e+00 -2.187909930944442749e-01 1.280000000000000000e+02
2.060331344604492188e+00 -1.078006148338317871e+00 -2.201810777187347412e-01 9.700000000000000000e+01
2.038583993911743164e+00 -1.074612021446228027e+00 -2.175272703170776367e-01 1.070000000000000000e+02
2.017753601074218750e+00 -1.071559786796569824e+00 -2.149998247623443604e-01 1.290000000000000000e+02
2.017080783843994141e+00 -1.079148411750793457e+00 -2.153789401054382324e-01 1.120000000000000000e+02
1.993673920631408691e+00 -1.074511528015136719e+00 -2.124723792076110840e-01 1.060000000000000000e+02
1.987752318382263184e+00 -1.079203605651855469e+00 -2.120932638645172119e-01 1.140000000000000000e+02
1.965282440185546875e+00 -1.074829459190368652e+00 -2.093130797147750854e-01 9.900000000000000000e+01
1.968927502632141113e+00 -1.084681391716003418e+00 -2.103240489959716797e-01 1.120000000000000000e+02
1.966457962989807129e+00 -1.091198086738586426e+00 -2.104504257440567017e-01 1.030000000000000000e+02
1.953574776649475098e+00 -1.091904282569885254e+00 -2.090603411197662354e-01 1.100000000000000000e+02
1.955402851104736328e+00 -1.100811243057250977e+00 -2.098185718059539795e-01 1.060000000000000000e+02
1.939933896064758301e+00 -1.099957942962646484e+00 -2.080493569374084473e-01 9.900000000000000000e+01
1.920181155204772949e+00 -1.096561431884765625e+00 -2.056482881307601929e-01 1.240000000000000000e+02
1.900467634201049805e+00 -1.093054294586181641e+00 -2.032472193241119385e-01 1.400000000000000000e+02
1.882510900497436523e+00 -1.090430498123168945e+00 -2.010988891124725342e-01 1.330000000000000000e+02
1.879156589508056641e+00 -1.096200823783874512e+00 -2.010988891124725342e-01 1.400000000000000000e+02
1.873218417167663574e+00 -1.100453972816467285e+00 -2.007197737693786621e-01 1.190000000000000000e+02
1.872395038604736328e+00 -1.107710480690002441e+00 -2.010988891124725342e-01 1.180000000000000000e+02
1.836599349975585938e+00 -1.094164371490478516e+00 -1.962967514991760254e-01 1.360000000000000000e+02
1.835786104202270508e+00 -1.101324200630187988e+00 -1.966758668422698975e-01 1.470000000000000000e+02
1.836644649505615234e+00 -1.109514713287353516e+00 -1.973077356815338135e-01 1.190000000000000000e+02
1.807803392410278320e+00 -1.099684357643127441e+00 -1.935165673494338989e-01 1.330000000000000000e+02
1.794268727302551270e+00 -1.099010348320007324e+00 -1.920001059770584106e-01 1.450000000000000000e+02
1.788355231285095215e+00 -1.102948307991027832e+00 -1.916209906339645386e-01 1.510000000000000000e+02
1.777377367019653320e+00 -1.103721737861633301e+00 -1.904836297035217285e-01 1.410000000000000000e+02
1.763888001441955566e+00 -1.102861166000366211e+00 -1.889671683311462402e-01 1.510000000000000000e+02
1.753779292106628418e+00 -1.104041218757629395e+00 -1.879561990499496460e-01 1.850000000000000000e+02
1.736137986183166504e+00 -1.100392222404479980e+00 -1.858078688383102417e-01 1.710000000000000000e+02
1.723553895950317383e+00 -1.099845886230468750e+00 -1.844177693128585815e-01 2.030000000000000000e+02
1.707650661468505859e+00 -1.097088813781738281e+00 -1.825221925973892212e-01 1.950000000000000000e+02
1.700111389160156250e+00 -1.099629998207092285e+00 -1.818903386592864990e-01 1.940000000000000000e+02
1.690909862518310547e+00 -1.101053118705749512e+00 -1.810057312250137329e-01 1.830000000000000000e+02
1.676737189292907715e+00 -1.099168181419372559e+00 -1.793628931045532227e-01 2.120000000000000000e+02
1.675013303756713867e+00 -1.105399608612060547e+00 -1.796156316995620728e-01 1.970000000000000000e+02
1.655086040496826172e+00 -1.099558830261230469e+00 -1.770881861448287964e-01 2.270000000000000000e+02
1.637684702873229980e+00 -1.095260143280029297e+00 -1.749398708343505859e-01 2.950000000000000000e+02
1.635139822959899902e+00 -1.100833177566528320e+00 -1.750662326812744141e-01 2.910000000000000000e+02
1.621899008750915527e+00 -1.099168896675109863e+00 -1.735497713088989258e-01 3.070000000000000000e+02
1.618519186973571777e+00 -1.104139685630798340e+00 -1.735497713088989258e-01 2.950000000000000000e+02
1.614306211471557617e+00 -1.108538627624511719e+00 -1.734233945608139038e-01 3.520000000000000000e+02
1.606000781059265137e+00 -1.110103011131286621e+00 -1.726651638746261597e-01 3.570000000000000000e+02
1.602587461471557617e+00 -1.115024924278259277e+00 -1.726651638746261597e-01 3.800000000000000000e+02
1.591032147407531738e+00 -1.114248037338256836e+00 -1.714014410972595215e-01 4.310000000000000000e+02
1.584362506866455078e+00 -1.116838693618774414e+00 -1.708959639072418213e-01 4.210000000000000000e+02
1.573645949363708496e+00 -1.116529941558837891e+00 -1.697586178779602051e-01 4.650000000000000000e+02
1.560524106025695801e+00 -1.114437103271484375e+00 -1.682421416044235229e-01 4.860000000000000000e+02
1.552263855934143066e+00 -1.115746855735778809e+00 -1.674839109182357788e-01 4.910000000000000000e+02
1.543206453323364258e+00 -1.116435289382934570e+00 -1.665993034839630127e-01 5.400000000000000000e+02
1.538169860839843750e+00 -1.119997143745422363e+00 -1.663465648889541626e-01 5.410000000000000000e+02
1.531525373458862305e+00 -1.122366189956665039e+00 -1.658410727977752686e-01 5.710000000000000000e+02
1.520888447761535645e+00 -1.121762156486511230e+00 -1.647037267684936523e-01 5.960000000000000000e+02
1.515846490859985352e+00 -1.125240802764892578e+00 -1.644509881734848022e-01 6.470000000000000000e+02
1.511592268943786621e+00 -1.129292607307434082e+00 -1.643246114253997803e-01 6.540000000000000000e+02
1.504948496818542480e+00 -1.131541013717651367e+00 -1.638191193342208862e-01 6.860000000000000000e+02
1.499887466430664062e+00 -1.134956121444702148e+00 -1.635663807392120361e-01 6.980000000000000000e+02
1.494819641113281250e+00 -1.138350725173950195e+00 -1.633136272430419922e-01 7.330000000000000000e+02
1.488170146942138672e+00 -1.140518665313720703e+00 -1.628081500530242920e-01 7.580000000000000000e+02
1.479164481163024902e+00 -1.140839576721191406e+00 -1.619235426187515259e-01 7.880000000000000000e+02
1.470954775810241699e+00 -1.141724109649658203e+00 -1.611653119325637817e-01 8.120000000000000000e+02
4.069530963897705078e+00 3.074949741363525391e+00 -6.360912919044494629e-01 1.050000000000000000e+02
4.090824604034423828e+00 3.071370840072631836e+00 -6.381659507751464844e-01 9.800000000000000000e+01
4.121660232543945312e+00 3.074797630310058594e+00 -6.419003009796142578e-01 9.600000000000000000e+01
4.162897586822509766e+00 3.085731744766235352e+00 -6.474326252937316895e-01 8.500000000000000000e+01
4.189089775085449219e+00 3.085281133651733398e+00 -6.503371000289916992e-01 9.500000000000000000e+01
4.213720321655273438e+00 3.083528757095336914e+00 -6.529650092124938965e-01 1.030000000000000000e+02
4.245588302612304688e+00 3.086896419525146484e+00 -6.568376421928405762e-01 9.200000000000000000e+01
4.278318881988525391e+00 3.090677738189697266e+00 -6.608486175537109375e-01 7.800000000000000000e+01
4.318353176116943359e+00 3.099485158920288086e+00 -6.661043167114257812e-01 8.700000000000000000e+01
4.336711406707763672e+00 3.092548131942749023e+00 -6.676257252693176270e-01 8.600000000000000000e+01
4.384965896606445312e+00 3.106714725494384766e+00 -6.742645502090454102e-01 8.900000000000000000e+01
4.419580936431884766e+00 3.110921621322631836e+00 -6.785521507263183594e-01 6.900000000000000000e+01
4.438843250274658203e+00 3.104159832000732422e+00 -6.802118420600891113e-01 8.500000000000000000e+01
4.471931457519531250e+00 3.106916666030883789e+00 -6.842228174209594727e-01 8.600000000000000000e+01
4.509968280792236328e+00 3.112875699996948242e+00 -6.890636086463928223e-01 6.000000000000000000e+01
4.554617881774902344e+00 3.123111486434936523e+00 -6.950109004974365234e-01 7.400000000000000000e+01
4.587913513183593750e+00 3.125295400619506836e+00 -6.990218162536621094e-01 7.100000000000000000e+01
4.608142852783203125e+00 3.118422031402587891e+00 -7.008198499679565430e-01 7.800000000000000000e+01
4.677685260772705078e+00 3.144610881805419922e+00 -7.109163999557495117e-01 8.800000000000000000e+01
4.677427768707275391e+00 3.123644113540649414e+00 -7.092567086219787598e-01 5.400000000000000000e+01
4.702668666839599609e+00 3.119683027267456055e+00 -7.118845582008361816e-01 8.100000000000000000e+01
4.764314174652099609e+00 3.139577627182006836e+00 -7.205980420112609863e-01 8.400000000000000000e+01
4.783866882324218750e+00 3.131456136703491211e+00 -7.222577333450317383e-01 7.600000000000000000e+01
4.818359375000000000e+00 3.132963180541992188e+00 -7.264069914817810059e-01 8.300000000000000000e+01
4.846250534057617188e+00 3.129988670349121094e+00 -7.294498085975646973e-01 8.000000000000000000e+01
4.902509689331054688e+00 3.145057201385498047e+00 -7.371950745582580566e-01 8.200000000000000000e+01
4.951389312744140625e+00 3.155019044876098633e+00 -7.436956167221069336e-01 8.600000000000000000e+01
4.991170883178710938e+00 3.158883333206176758e+00 -7.486747503280639648e-01 9.500000000000000000e+01
5.020961284637451172e+00 3.156207323074340820e+00 -7.519941329956054688e-01 8.600000000000000000e+01
5.042381763458251953e+00 3.148132324218750000e+00 -7.539304494857788086e-01 1.090000000000000000e+02
5.072216033935546875e+00 3.145175695419311523e+00 -7.572498917579650879e-01 8.800000000000000000e+01
5.118101596832275391e+00 3.151934146881103516e+00 -7.631971836090087891e-01 8.700000000000000000e+01
5.209697723388671875e+00 3.186348915100097656e+00 -7.766131162643432617e-01 8.400000000000000000e+01
5.229606151580810547e+00 3.176521301269531250e+00 -7.782728075981140137e-01 6.300000000000000000e+01
5.274942874908447266e+00 3.181950569152832031e+00 -7.840818166732788086e-01 1.060000000000000000e+02
5.309317588806152344e+00 3.180513858795166016e+00 -7.880927324295043945e-01 1.020000000000000000e+02
5.332668304443359375e+00 3.172312736511230469e+00 -7.903056740760803223e-01 8.800000000000000000e+01
5.376482963562011719e+00 3.176089525222778320e+00 -7.958380579948425293e-01 1.160000000000000000e+02
5.410119533538818359e+00 3.173612833023071289e+00 -7.997106909751892090e-01 8.900000000000000000e+01
5.449781894683837891e+00 3.174449443817138672e+00 -8.045515418052673340e-01 9.200000000000000000e+01
5.499787330627441406e+00 3.181023597717285156e+00 -8.110520243644714355e-01 1.030000000000000000e+02
5.521543979644775391e+00 3.171041727066040039e+00 -8.129883408546447754e-01 1.170000000000000000e+02
5.602651596069335938e+00 3.194811820983886719e+00 -8.244680166244506836e-01 9.400000000000000000e+01
5.647760868072509766e+00 3.197617053985595703e+00 -8.301386833190917969e-01 1.000000000000000000e+02
5.699846267700195312e+00 3.204058170318603516e+00 -8.369157910346984863e-01 1.140000000000000000e+02
5.729539394378662109e+00 3.197658777236938477e+00 -8.400968909263610840e-01 7.800000000000000000e+01
5.772240161895751953e+00 3.198308229446411133e+00 -8.453526496887207031e-01 8.100000000000000000e+01
5.839295387268066406e+00 3.212093114852905273e+00 -8.544810414314270020e-01 9.300000000000000000e+01
5.893451213836669922e+00 3.218375205993652344e+00 -8.615347743034362793e-01 1.120000000000000000e+02
5.989490985870361328e+00 3.247014522552490234e+00 -8.752273321151733398e-01 1.320000000000000000e+02
6.008145332336425781e+00 3.233317852020263672e+00 -8.766104578971862793e-01 1.020000000000000000e+02
6.066080093383789062e+00 3.240539789199829102e+00 -8.842174410820007324e-01 9.800000000000000000e+01
6.116241455078125000e+00 3.243259906768798828e+00 -8.905796408653259277e-01 1.040000000000000000e+02
6.160341262817382812e+00 3.242473125457763672e+00 -8.959736824035644531e-01 9.200000000000000000e+01
6.208882331848144531e+00 3.243739366531372070e+00 -9.020592570304870605e-01 7.500000000000000000e+01
6.274193286895751953e+00 3.253401517868041992e+00 -9.107727408409118652e-01 1.080000000000000000e+02
6.302637100219726562e+00 3.243655920028686523e+00 -9.136772155761718750e-01 7.900000000000000000e+01
6.406929016113281250e+00 3.272515058517456055e+00 -9.284762740135192871e-01 8.600000000000000000e+01
6.461989402770996094e+00 3.275684118270874023e+00 -9.355300068855285645e-01 7.200000000000000000e+01
6.522437095642089844e+00 3.281216859817504883e+00 -9.434136152267456055e-01 7.100000000000000000e+01
6.569688320159912109e+00 3.279772996902465820e+00 -9.492226243019104004e-01 7.900000000000000000e+01
6.594805717468261719e+00 3.267076969146728516e+00 -9.515738487243652344e-01 7.400000000000000000e+01
6.625239849090576172e+00 3.256879568099975586e+00 -9.547549486160278320e-01 7.100000000000000000e+01
6.663683891296386719e+00 3.250434637069702148e+00 -9.591808319091796875e-01 6.300000000000000000e+01
7.092945098876953125e+00 3.326149940490722656e+00 -1.017823815345764160e+00 2.700000000000000000e+01
7.158789157867431641e+00 3.330276966094970703e+00 -1.026398897171020508e+00 1.000000000000000000e+01
4.477206707000732422e+00 1.709908723831176758e+00 -5.930772423744201660e-01 1.900000000000000000e+01
4.538006782531738281e+00 1.717201232910156250e+00 -6.013757586479187012e-01 4.000000000000000000e+00
9.618141174316406250e+00 3.539292097091674805e+00 -1.355020880699157715e+00 1.000000000000000000e+01
9.785925865173339844e+00 3.533017873764038086e+00 -1.376735329627990723e+00 7.000000000000000000e+00
9.822830200195312500e+00 3.512316465377807617e+00 -1.380607962608337402e+00 1.000000000000000000e+01
9.865729331970214844e+00 -4.564585089683532715e-01 -1.303016662597656250e+00 2.300000000000000000e+01
9.816802024841308594e+00 -4.843836128711700439e-01 -1.296377897262573242e+00 2.400000000000000000e+01
9.711421012878417969e+00 -5.090606212615966797e-01 -1.281855463981628418e+00 1.700000000000000000e+01
8.956294059753417969e+00 -4.970746040344238281e-01 -1.176464080810546875e+00 1.200000000000000000e+01
8.974500656127929688e+00 -5.257070064544677734e-01 -1.179230213165283203e+00 1.600000000000000000e+01
8.659486770629882812e+00 -5.339347720146179199e-01 -1.135386347770690918e+00 1.000000000000000000e+01
8.473979949951171875e+00 -5.486090779304504395e-01 -1.109660863876342773e+00 2.000000000000000000e+01
8.504864692687988281e+00 -5.768138766288757324e-01 -1.114225149154663086e+00 1.700000000000000000e+01
8.192850112915039062e+00 -5.809272527694702148e-01 -1.070796132087707520e+00 1.800000000000000000e+01
8.130780220031738281e+00 -6.016057133674621582e-01 -1.062359213829040527e+00 2.000000000000000000e+01
7.898816585540771484e+00 -6.088283061981201172e-01 -1.030133247375488281e+00 3.600000000000000000e+01
7.782393455505371094e+00 -6.238856315612792969e-01 -1.014089465141296387e+00 1.700000000000000000e+01
7.656083106994628906e+00 -6.374133229255676270e-01 -9.966625571250915527e-01 1.500000000000000000e+01
7.405437469482421875e+00 -6.394450068473815918e-01 -9.618086814880371094e-01 1.800000000000000000e+01
7.340307712554931641e+00 -6.565192937850952148e-01 -9.529569149017333984e-01 1.700000000000000000e+01
7.107491970062255859e+00 -6.576981544494628906e-01 -9.205926656723022461e-01 2.200000000000000000e+01
7.136989593505859375e+00 -6.825153231620788574e-01 -9.250185489654541016e-01 2.300000000000000000e+01
6.991949558258056641e+00 -6.903088092803955078e-01 -9.049637317657470703e-01 2.200000000000000000e+01
6.894224643707275391e+00 -7.020313739776611328e-01 -8.915477991104125977e-01 2.400000000000000000e+01
6.728529930114746094e+00 -7.060344219207763672e-01 -8.685885071754455566e-01 1.040000000000000000e+02
6.681037425994873047e+00 -7.217839956283569336e-01 -8.622263073921203613e-01 4.500000000000000000e+01
6.494720935821533203e+00 -7.218341231346130371e-01 -8.363625407218933105e-01 3.800000000000000000e+01
6.439339637756347656e+00 -7.356897592544555664e-01 -8.288938999176025391e-01 3.100000000000000000e+01
6.296391010284423828e+00 -7.389451861381530762e-01 -8.091157078742980957e-01 1.110000000000000000e+02
6.309826850891113281e+00 -7.601528167724609375e-01 -8.113286495208740234e-01 4.800000000000000000e+01
5.952630519866943359e+00 -7.356839179992675781e-01 -7.613991498947143555e-01 2.000000000000000000e+01
5.923816680908203125e+00 -7.505837678909301758e-01 -7.576647996902465820e-01 2.200000000000000000e+01
5.872378349304199219e+00 -7.623830437660217285e-01 -7.507493495941162109e-01 2.000000000000000000e+01
5.756127357482910156e+00 -7.652650475502014160e-01 -7.347055077552795410e-01 2.000000000000000000e+01
5.716460704803466797e+00 -7.778499722480773926e-01 -7.294498085975646973e-01 2.100000000000000000e+01
5.703257083892822266e+00 -7.938831448554992676e-01 -7.279284000396728516e-01 2.000000000000000000e+01
5.594898223876953125e+00 -7.963143587112426758e-01 -7.129910588264465332e-01 2.700000000000000000e+01
5.479719161987304688e+00 -7.970909476280212402e-01 -6.970854997634887695e-01 2.300000000000000000e+01
5.382222175598144531e+00 -7.997871041297912598e-01 -6.836695671081542969e-01 3.200000000000000000e+01
5.325887203216552734e+00 -8.081290721893310547e-01 -6.760625839233398438e-01 2.100000000000000000e+01
5.208870887756347656e+00 -8.067407011985778809e-01 -6.598804593086242676e-01 1.600000000000000000e+01
5.229849815368652344e+00 -8.264252543449401855e-01 -6.631998419761657715e-01 2.500000000000000000e+01
5.203823089599609375e+00 -8.386865258216857910e-01 -6.598804593086242676e-01 2.100000000000000000e+01
5.053653240203857422e+00 -8.304136395454406738e-01 -6.389957666397094727e-01 5.400000000000000000e+01
4.991496562957763672e+00 -8.359413146972656250e-01 -6.305589675903320312e-01 4.500000000000000000e+01
5.005505561828613281e+00 -8.540813326835632324e-01 -6.329101920127868652e-01 4.300000000000000000e+01
4.859422206878662109e+00 -8.445206284523010254e-01 -6.125788092613220215e-01 6.400000000000000000e+01
4.797317504882812500e+00 -8.489044308662414551e-01 -6.041419506072998047e-01 8.400000000000000000e+01
4.807362079620361328e+00 -8.658993840217590332e-01 -6.059399843215942383e-01 9.200000000000000000e+01
4.732593536376953125e+00 -8.674386739730834961e-01 -5.957050919532775879e-01 9.100000000000000000e+01
4.685123443603515625e+00 -8.736076951026916504e-01 -5.893428921699523926e-01 9.500000000000000000e+01
4.641552448272705078e+00 -8.802314400672912598e-01 -5.835339426994323730e-01 9.000000000000000000e+01
4.509488105773925781e+00 -8.695417642593383789e-01 -5.651388764381408691e-01 1.040000000000000000e+02
4.486388683319091797e+00 -8.793743252754211426e-01 -5.622343420982360840e-01 1.300000000000000000e+02
4.461329460144042969e+00 -8.886866569519042969e-01 -5.590532422065734863e-01 1.290000000000000000e+02
4.400338172912597656e+00 -8.905884027481079102e-01 -5.507547259330749512e-01 1.480000000000000000e+02
4.351018905639648438e+00 -8.945164084434509277e-01 -5.441159009933471680e-01 1.480000000000000000e+02
4.255181789398193359e+00 -8.884395956993103027e-01 -5.308382511138916016e-01 2.090000000000000000e+02
4.231120586395263672e+00 -8.969739675521850586e-01 -5.277954339981079102e-01 1.310000000000000000e+02
4.130555629730224609e+00 -8.889172673225402832e-01 -5.138262510299682617e-01 1.450000000000000000e+02
4.131679534912109375e+00 -9.024303555488586426e-01 -5.143795013427734375e-01 2.170000000000000000e+02
4.087312698364257812e+00 -9.058918356895446777e-01 -5.084322094917297363e-01 1.970000000000000000e+02
4.062289714813232422e+00 -9.134327173233032227e-01 -5.052511096000671387e-01 2.210000000000000000e+02
4.027602672576904297e+00 -9.186275005340576172e-01 -5.006869435310363770e-01 2.370000000000000000e+02
4.001606941223144531e+00 -9.256258010864257812e-01 -4.973675012588500977e-01 2.440000000000000000e+02
3.948607206344604492e+00 -9.261442422866821289e-01 -4.901754558086395264e-01 2.320000000000000000e+02
3.879262208938598633e+00 -9.224533438682556152e-01 -4.806321263313293457e-01 2.280000000000000000e+02
3.866785526275634766e+00 -9.320309162139892578e-01 -4.792490303516387939e-01 2.360000000000000000e+02
3.839854717254638672e+00 -9.380171298980712891e-01 -4.757913053035736084e-01 2.370000000000000000e+02
3.797541379928588867e+00 -9.400411844253540039e-01 -4.701206684112548828e-01 2.220000000000000000e+02
3.747566699981689453e+00 -9.398881793022155762e-01 -4.633435308933258057e-01 2.670000000000000000e+02
3.712987899780273438e+00 -9.433374404907226562e-01 -4.587793350219726562e-01 2.450000000000000000e+02
3.688015222549438477e+00 -9.490503668785095215e-01 -4.555982351303100586e-01 2.330000000000000000e+02
3.633332014083862305e+00 -9.468803405761718750e-01 -4.481295347213745117e-01 2.410000000000000000e+02
3.628494739532470703e+00 -9.575176239013671875e-01 -4.478529393672943115e-01 2.210000000000000000e+02
3.553775310516357422e+00 -9.494819641113281250e-01 -4.374797642230987549e-01 1.900000000000000000e+02
3.527899742126464844e+00 -9.541776776313781738e-01 -4.341603517532348633e-01 2.090000000000000000e+02
3.503939867019653320e+00 -9.592463374137878418e-01 -4.311175644397735596e-01 1.880000000000000000e+02
3.480936527252197266e+00 -9.644413590431213379e-01 -4.282130599021911621e-01 2.100000000000000000e+02
3.447444200515747070e+00 -9.665647149085998535e-01 -4.237871766090393066e-01 2.070000000000000000e+02
3.423500537872314453e+00 -9.711933135986328125e-01 -4.207443892955780029e-01 1.820000000000000000e+02
3.400512695312500000e+00 -9.759572744369506836e-01 -4.178398847579956055e-01 1.730000000000000000e+02
3.369919061660766602e+00 -9.783813357353210449e-01 -4.138289391994476318e-01 1.950000000000000000e+02
3.339342832565307617e+00 -9.806269407272338867e-01 -4.098179936408996582e-01 1.790000000000000000e+02
3.296442031860351562e+00 -9.790304303169250488e-01 -4.040090143680572510e-01 1.560000000000000000e+02
3.242199897766113281e+00 -9.737631678581237793e-01 -3.965403437614440918e-01 1.560000000000000000e+02
3.205080032348632812e+00 -9.733501076698303223e-01 -3.915612101554870605e-01 1.400000000000000000e+02
3.185982942581176758e+00 -9.782391190528869629e-01 -3.892099559307098389e-01 1.470000000000000000e+02
3.153643369674682617e+00 -9.789117574691772461e-01 -3.849223852157592773e-01 1.240000000000000000e+02
3.144955396652221680e+00 -9.868042469024658203e-01 -3.840925395488739014e-01 1.410000000000000000e+02
3.125863552093505859e+00 -9.913607835769653320e-01 -3.817412853240966797e-01 1.130000000000000000e+02
3.103000640869140625e+00 -9.946008920669555664e-01 -3.788368105888366699e-01 1.110000000000000000e+02
3.069782972335815430e+00 -9.943546652793884277e-01 -3.744108974933624268e-01 1.120000000000000000e+02
3.057304859161376953e+00 -1.000688552856445312e+00 -3.730278313159942627e-01 1.250000000000000000e+02
3.035413265228271484e+00 -1.003847122192382812e+00 -3.702616393566131592e-01 9.300000000000000000e+01
2.991925477981567383e+00 -9.996656775474548340e-01 -3.643143773078918457e-01 1.040000000000000000e+02
2.978521585464477539e+00 -1.005357623100280762e+00 -3.627929687500000000e-01 1.050000000000000000e+02
2.932300567626953125e+00 -9.997956156730651855e-01 -3.564307689666748047e-01 9.600000000000000000e+01
2.929219484329223633e+00 -1.008787035942077637e+00 -3.564307689666748047e-01 1.000000000000000000e+02
2.897110939025878906e+00 -1.007687568664550781e+00 -3.521431684494018555e-01 1.080000000000000000e+02
2.894940376281738281e+00 -1.016899108886718750e+00 -3.522814810276031494e-01 9.600000000000000000e+01
2.886206150054931641e+00 -1.023790240287780762e+00 -3.514516353607177734e-01 1.200000000000000000e+02
2.828037738800048828e+00 -1.012945652008056641e+00 -3.432914018630981445e-01 1.190000000000000000e+02
2.771826267242431641e+00 -1.002427339553833008e+00 -3.354078233242034912e-01 1.170000000000000000e+02
2.755712509155273438e+00 -1.006173253059387207e+00 -3.334714770317077637e-01 8.700000000000000000e+01
2.756330013275146484e+00 -1.015992403030395508e+00 -3.340247273445129395e-01 1.030000000000000000e+02
2.757841348648071289e+00 -1.026170015335083008e+00 -3.347162604331970215e-01 1.020000000000000000e+02
2.710174083709716797e+00 -1.017918825149536133e+00 -3.280774354934692383e-01 9.300000000000000000e+01
2.696850776672363281e+00 -1.022368788719177246e+00 -3.265560269355773926e-01 1.040000000000000000e+02
2.669650077819824219e+00 -1.021440267562866211e+00 -3.229600191116333008e-01 1.120000000000000000e+02
2.644328594207763672e+00 -1.021067738533020020e+00 -3.196406066417694092e-01 1.100000000000000000e+02
2.614420175552368164e+00 -1.018752336502075195e+00 -3.156296312808990479e-01 1.080000000000000000e+02
2.613126039505004883e+00 -1.027493000030517578e+00 -3.159062564373016357e-01 8.700000000000000000e+01
2.595231056213378906e+00 -1.029663920402526855e+00 -3.136933147907257080e-01 9.400000000000000000e+01
2.577347517013549805e+00 -1.031734704971313477e+00 -3.114803731441497803e-01 9.700000000000000000e+01
2.572333335876464844e+00 -1.038895606994628906e+00 -3.112037479877471924e-01 8.700000000000000000e+01
2.554457902908325195e+00 -1.040806055068969727e+00 -3.089908063411712646e-01 9.700000000000000000e+01
2.501783609390258789e+00 -1.028315424919128418e+00 -3.015221357345581055e-01 7.900000000000000000e+01
2.496787071228027344e+00 -1.035227537155151367e+00 -3.012455105781555176e-01 8.900000000000000000e+01
2.482634067535400391e+00 -1.038299202919006348e+00 -2.995858192443847656e-01 1.010000000000000000e+02
2.453884124755859375e+00 -1.035137653350830078e+00 -2.957131564617156982e-01 1.010000000000000000e+02
2.452519655227661133e+00 -1.043436288833618164e+00 -2.959897816181182861e-01 8.100000000000000000e+01
2.432923078536987305e+00 -1.043929219245910645e+00 -2.935002148151397705e-01 9.300000000000000000e+01
2.411528587341308594e+00 -1.043525457382202148e+00 -2.907340526580810547e-01 9.400000000000000000e+01
2.402868986129760742e+00 -1.048543453216552734e+00 -2.899041771888732910e-01 8.400000000000000000e+01
2.375162839889526367e+00 -1.045145153999328613e+00 -2.861698567867279053e-01 1.060000000000000000e+02
2.355648756027221680e+00 -1.045200228691101074e+00 -2.836802899837493896e-01 1.020000000000000000e+02
2.308129072189331055e+00 -1.032613039016723633e+00 -2.769031524658203125e-01 1.140000000000000000e+02
2.332939386367797852e+00 -1.052307724952697754e+00 -2.811907231807708740e-01 1.090000000000000000e+02
2.292733430862426758e+00 -1.042657971382141113e+00 -2.755200564861297607e-01 1.190000000000000000e+02
2.285022020339965820e+00 -1.047624111175537109e+00 -2.748285233974456787e-01 9.800000000000000000e+01
2.280898094177246094e+00 -1.054214239120483398e+00 -2.746902108192443848e-01 1.070000000000000000e+02
2.259696722030639648e+00 -1.052845120429992676e+00 -2.719240486621856689e-01 9.300000000000000000e+01
2.260938644409179688e+00 -1.061877012252807617e+00 -2.726155817508697510e-01 9.900000000000000000e+01
2.225441932678222656e+00 -1.053559184074401855e+00 -2.676364481449127197e-01 1.070000000000000000e+02
2.225775003433227539e+00 -1.062087178230285645e+00 -2.681896984577178955e-01 1.170000000000000000e+02
2.201975822448730469e+00 -1.059041976928710938e+00 -2.650085985660552979e-01 1.150000000000000000e+02
2.202281475067138672e+00 -1.067519783973693848e+00 -2.655618190765380859e-01 1.090000000000000000e+02
2.190986394882202148e+00 -1.070360302925109863e+00 -2.643170356750488281e-01 1.160000000000000000e+02
2.171696901321411133e+00 -1.069206237792968750e+00 -2.618274986743927002e-01 1.160000000000000000e+02
2.157759189605712891e+00 -1.070583820343017578e+00 -2.601677775382995605e-01 9.900000000000000000e+01
2.141175508499145508e+00 -1.070557951927185059e+00 -2.580931484699249268e-01 1.030000000000000000e+02
2.126381635665893555e+00 -1.071331262588500977e+00 -2.562951445579528809e-01 1.170000000000000000e+02
2.098355293273925781e+00 -1.065301775932312012e+00 -2.524224817752838135e-01 1.050000000000000000e+02
2.096840858459472656e+00 -1.072636127471923828e+00 -2.526991069316864014e-01 1.160000000000000000e+02
2.088257551193237305e+00 -1.076342821121215820e+00 -2.518692612648010254e-01 9.300000000000000000e+01
2.058574438095092773e+00 -1.069056749343872070e+00 -2.477199882268905640e-01 1.060000000000000000e+02
2.064939022064208984e+00 -1.080415725708007812e+00 -2.492413818836212158e-01 1.120000000000000000e+02
2.036204099655151367e+00 -1.073358178138732910e+00 -2.452304214239120483e-01 1.190000000000000000e+02
2.035526037216186523e+00 -1.080993175506591797e+00 -2.456453442573547363e-01 1.030000000000000000e+02
2.016479253768920898e+00 -1.078826785087585449e+00 -2.431557923555374146e-01 1.240000000000000000e+02
1.987002134323120117e+00 -1.070917606353759766e+00 -2.390065193176269531e-01 1.140000000000000000e+02
2.033324956893920898e+00 -1.103933095932006836e+00 -2.468901276588439941e-01 9.600000000000000000e+01
1.991691112518310547e+00 -1.089264750480651855e+00 -2.408045381307601929e-01 1.080000000000000000e+02
1.957974910736083984e+00 -1.078650832176208496e+00 -2.359637320041656494e-01 1.150000000000000000e+02
1.958986997604370117e+00 -1.087054491043090820e+00 -2.366552650928497314e-01 1.140000000000000000e+02
1.958236575126647949e+00 -1.094508528709411621e+00 -2.370702028274536133e-01 1.080000000000000000e+02
1.934154152870178223e+00 -1.088855385780334473e+00 -2.337507903575897217e-01 1.260000000000000000e+02
1.927357912063598633e+00 -1.092831015586853027e+00 -2.331975549459457397e-01 1.260000000000000000e+02
1.910233736038208008e+00 -1.090883851051330566e+00 -2.309846132993698120e-01 1.150000000000000000e+02
1.890563964843750000e+00 -1.087361216545104980e+00 -2.283567339181900024e-01 1.350000000000000000e+02
1.871791005134582520e+00 -1.084224462509155273e+00 -2.258671820163726807e-01 1.220000000000000000e+02
1.852199673652648926e+00 -1.080483913421630859e+00 -2.232393175363540649e-01 1.340000000000000000e+02
1.836065292358398438e+00 -1.078639388084411621e+00 -2.211646735668182373e-01 1.360000000000000000e+02
1.831042408943176270e+00 -1.083259105682373047e+00 -2.208880633115768433e-01 1.160000000000000000e+02
1.824306607246398926e+00 -1.086844801902770996e+00 -2.203348278999328613e-01 1.200000000000000000e+02
1.809072017669677734e+00 -1.085306406021118164e+00 -2.183984965085983276e-01 1.380000000000000000e+02
1.809125185012817383e+00 -1.092899084091186523e+00 -2.189517319202423096e-01 1.260000000000000000e+02
1.787145853042602539e+00 -1.087125182151794434e+00 -2.159089446067810059e-01 1.320000000000000000e+02
1.780423521995544434e+00 -1.090534567832946777e+00 -2.153557091951370239e-01 1.450000000000000000e+02
1.764423131942749023e+00 -1.088196396827697754e+00 -2.132810652256011963e-01 1.480000000000000000e+02
1.749295473098754883e+00 -1.086292624473571777e+00 -2.113447487354278564e-01 1.330000000000000000e+02
1.745954513549804688e+00 -1.091654300689697266e+00 -2.113447487354278564e-01 1.450000000000000000e+02
1.731699585914611816e+00 -1.090149164199829102e+00 -2.095467299222946167e-01 1.430000000000000000e+02
1.719980478286743164e+00 -1.090156912803649902e+00 -2.081636488437652588e-01 1.560000000000000000e+02
1.724143028259277344e+00 -1.100221633911132812e+00 -2.094084173440933228e-01 1.790000000000000000e+02
1.701591730117797852e+00 -1.093198418617248535e+00 -2.062273174524307251e-01 1.840000000000000000e+02
1.692407727241516113e+00 -1.094649910926818848e+00 -2.052591592073440552e-01 1.830000000000000000e+02
1.694851994514465332e+00 -1.103618502616882324e+00 -2.062273174524307251e-01 1.750000000000000000e+02
1.676546573638916016e+00 -1.099043369293212891e+00 -2.037377655506134033e-01 1.970000000000000000e+02
1.667379617691040039e+00 -1.100364565849304199e+00 -2.027695924043655396e-01 1.940000000000000000e+02
1.663995862007141113e+00 -1.105474948883056641e+00 -2.027695924043655396e-01 2.390000000000000000e+02
1.657302975654602051e+00 -1.108373284339904785e+00 -2.022163569927215576e-01 2.000000000000000000e+02
1.644034385681152344e+00 -1.106817960739135742e+00 -2.005566507577896118e-01 2.450000000000000000e+02
1.639810919761657715e+00 -1.111301183700561523e+00 -2.004183381795883179e-01 3.080000000000000000e+02
1.633120656013488770e+00 -1.114095091819763184e+00 -1.998651027679443359e-01 2.920000000000000000e+02
1.619079589843750000e+00 -1.111814618110656738e+00 -1.980670988559722900e-01 3.010000000000000000e+02
1.613216400146484375e+00 -1.115087866783142090e+00 -1.976521611213684082e-01 3.240000000000000000e+02
1.596777796745300293e+00 -1.110985040664672852e+00 -1.954392194747924805e-01 3.770000000000000000e+02
1.591739177703857422e+00 -1.114742875099182129e+00 -1.951626092195510864e-01 3.590000000000000000e+02
1.586692333221435547e+00 -1.118480205535888672e+00 -1.948859840631484985e-01 3.820000000000000000e+02
1.572751045227050781e+00 -1.115895271301269531e+00 -1.930879801511764526e-01 4.290000000000000000e+02
1.573350667953491211e+00 -1.123592019081115723e+00 -1.937795132398605347e-01 4.530000000000000000e+02
1.564265727996826172e+00 -1.124368786811828613e+00 -1.928113549947738647e-01 5.180000000000000000e+02
1.558401107788085938e+00 -1.127421736717224121e+00 -1.923964321613311768e-01 5.220000000000000000e+02
1.550930976867675781e+00 -1.129283785820007324e+00 -1.917048841714859009e-01 5.600000000000000000e+02
1.542665123939514160e+00 -1.130525350570678711e+00 -1.908750385046005249e-01 5.520000000000000000e+02
1.531217455863952637e+00 -1.129376173019409180e+00 -1.894919425249099731e-01 6.110000000000000000e+02
1.522972941398620605e+00 -1.130527973175048828e+00 -1.886620968580245972e-01 6.200000000000000000e+02
1.513942360877990723e+00 -1.131047248840332031e+00 -1.876939237117767334e-01 6.390000000000000000e+02
1.504131197929382324e+00 -1.130926847457885742e+00 -1.865874528884887695e-01 6.770000000000000000e+02
1.498284697532653809e+00 -1.133744001388549805e+00 -1.861725300550460815e-01 6.940000000000000000e+02
1.487706542015075684e+00 -1.132936954498291016e+00 -1.849277466535568237e-01 6.940000000000000000e+02
1.474002599716186523e+00 -1.129666805267333984e+00 -1.831297427415847778e-01 7.330000000000000000e+02
