# .PCD v.7 - Point Cloud Data file format
VERSION .7
FIELDS x y z intensity
SIZE 4 4 4 4
TYPE F F F F
COUNT 1 1 1 1
WIDTH 470
HEIGHT 1
VIEWPOINT 0 0 0 1 0 0 0
POINTS 470
DATA ascii
4.195820331573486328e+00 3.654618263244628906e-01 -6.423096358776092529e-02 3.560000000000000000e+02
4.186962127685546875e+00 3.517519831657409668e-01 -6.390115618705749512e-02 3.800000000000000000e+02
4.188021659851074219e+00 3.389049172401428223e-01 -6.390115618705749512e-02 3.440000000000000000e+02
4.186052322387695312e+00 3.258223235607147217e-01 -6.380221247673034668e-02 3.220000000000000000e+02
4.187032222747802734e+00 3.129781782627105713e-01 -6.380221247673034668e-02 3.370000000000000000e+02
4.193953990936279297e+00 3.005590140819549561e-01 -6.400009244680404663e-02 3.710000000000000000e+02
4.197847843170166016e+00 2.878955304622650146e-01 -6.409903615713119507e-02 3.240000000000000000e+02
4.213671207427978516e+00 2.759934663772583008e-01 -6.459374725818634033e-02 3.470000000000000000e+02
4.225470542907714844e+00 2.637484371662139893e-01 -6.495653837919235229e-02 3.470000000000000000e+02
4.248209476470947266e+00 2.520835101604461670e-01 -6.568211317062377930e-02 3.420000000000000000e+02
4.266924858093261719e+00 2.400574684143066406e-01 -6.627576798200607300e-02 3.020000000000000000e+02
4.291594505310058594e+00 2.282367199659347534e-01 -6.706730276346206665e-02 3.360000000000000000e+02
4.310242176055908203e+00 2.159674316644668579e-01 -6.766095757484436035e-02 3.360000000000000000e+02
4.319869995117187500e+00 2.031643241643905640e-01 -6.795778870582580566e-02 3.060000000000000000e+02
4.340442657470703125e+00 1.907857060432434082e-01 -6.861740350723266602e-02 3.400000000000000000e+02
4.350994110107421875e+00 1.778756380081176758e-01 -6.894721090793609619e-02 3.270000000000000000e+02
4.366500377655029297e+00 1.650908589363098145e-01 -6.944192200899124146e-02 3.080000000000000000e+02
4.384965896606445312e+00 1.523163467645645142e-01 -7.003556936979293823e-02 3.170000000000000000e+02
4.402394771575927734e+00 1.393985748291015625e-01 -7.059624791145324707e-02 3.210000000000000000e+02
4.427777767181396484e+00 1.266029179096221924e-01 -7.142076641321182251e-02 3.400000000000000000e+02
4.449127197265625000e+00 1.135512515902519226e-01 -7.211335748434066772e-02 3.120000000000000000e+02
4.467440605163574219e+00 1.003028079867362976e-01 -7.270701229572296143e-02 3.140000000000000000e+02
4.482716083526611328e+00 8.688528835773468018e-02 -7.320172339677810669e-02 2.880000000000000000e+02
4.499950408935546875e+00 7.340736687183380127e-02 -7.376239448785781860e-02 2.760000000000000000e+02
4.518142700195312500e+00 5.983763933181762695e-02 -7.435604929924011230e-02 2.770000000000000000e+02
4.540292263031005859e+00 4.619720950722694397e-02 -7.508162409067153931e-02 3.070000000000000000e+02
4.558402061462402344e+00 3.239345923066139221e-02 -7.567527890205383301e-02 2.730000000000000000e+02
4.573472023010253906e+00 1.846724003553390503e-02 -7.616999000310897827e-02 2.690000000000000000e+02
4.586500167846679688e+00 4.447136074304580688e-03 -7.659874111413955688e-02 2.390000000000000000e+02
4.588490962982177734e+00 -9.628478437662124634e-03 -7.666470110416412354e-02 2.850000000000000000e+02
4.611426830291748047e+00 -2.382696419954299927e-02 -7.742325961589813232e-02 2.820000000000000000e+02
4.615329742431640625e+00 -3.800786286592483521e-02 -7.755517959594726562e-02 2.270000000000000000e+02
4.652169227600097656e+00 -5.258924886584281921e-02 -7.877546548843383789e-02 2.240000000000000000e+02
4.675970077514648438e+00 -6.720892339944839478e-02 -7.956700772047042847e-02 2.510000000000000000e+02
4.696727275848388672e+00 -8.192253112792968750e-02 -8.025959879159927368e-02 2.310000000000000000e+02
4.709444046020507812e+00 -9.659931808710098267e-02 -8.068834990262985229e-02 2.200000000000000000e+02
4.735104084014892578e+00 -1.116625741124153137e-01 -8.154585212469100952e-02 1.840000000000000000e+02
4.771706104278564453e+00 -1.271782368421554565e-01 -8.276613801717758179e-02 1.750000000000000000e+02
4.798266410827636719e+00 -1.426215469837188721e-01 -8.365661650896072388e-02 1.990000000000000000e+02
4.817784786224365234e+00 -1.579989939928054810e-01 -8.431623131036758423e-02 1.790000000000000000e+02
4.835256099700927734e+00 -1.734256744384765625e-01 -8.490988612174987793e-02 1.890000000000000000e+02
4.846685409545898438e+00 -1.887271106243133545e-01 -8.530565351247787476e-02 1.690000000000000000e+02
4.859065055847167969e+00 -2.041423469781875610e-01 -8.573440462350845337e-02 1.560000000000000000e+02
4.883376598358154297e+00 -2.201767265796661377e-01 -8.655892312526702881e-02 1.530000000000000000e+02
4.914623737335205078e+00 -2.366994619369506836e-01 -8.761430531740188599e-02 1.390000000000000000e+02
4.933837413787841797e+00 -2.528010606765747070e-01 -8.827392011880874634e-02 1.360000000000000000e+02
4.952000141143798828e+00 -2.689684927463531494e-01 -8.890055865049362183e-02 1.480000000000000000e+02
4.961129665374755859e+00 -2.847334146499633789e-01 -8.923036605119705200e-02 1.210000000000000000e+02
4.995149612426757812e+00 -3.020675778388977051e-01 -9.038469195365905762e-02 9.300000000000000000e+01
5.013150691986083984e+00 -3.185973167419433594e-01 -9.101132303476333618e-02 1.060000000000000000e+02
5.038077831268310547e+00 -3.357062041759490967e-01 -9.186882525682449341e-02 1.160000000000000000e+02
5.056964874267578125e+00 -3.525533676147460938e-01 -9.252844005823135376e-02 9.600000000000000000e+01
5.097725391387939453e+00 -3.711182177066802979e-01 -9.391362965106964111e-02 1.060000000000000000e+02
5.144399166107177734e+00 -3.903907835483551025e-01 -9.549670666456222534e-02 9.200000000000000000e+01
5.165096759796142578e+00 -4.079049229621887207e-01 -9.622228145599365234e-02 7.300000000000000000e+01
5.166809082031250000e+00 -4.239947795867919922e-01 -9.632122516632080078e-02 6.200000000000000000e+01
5.176438331604003906e+00 -4.407781660556793213e-01 -9.668400883674621582e-02 7.100000000000000000e+01
5.253712654113769531e+00 -4.636050164699554443e-01 -9.928949177265167236e-02 3.900000000000000000e+01
5.230368614196777344e+00 -4.777189791202545166e-01 -9.856390953063964844e-02 6.800000000000000000e+01
5.273654460906982422e+00 -4.979957044124603271e-01 -1.000480428338050842e-01 4.500000000000000000e+01
5.283043861389160156e+00 -5.152409076690673828e-01 -1.004108339548110962e-01 3.600000000000000000e+01
5.293371200561523438e+00 -5.326485037803649902e-01 -1.008066013455390930e-01 7.800000000000000000e+01
5.359312057495117188e+00 -5.559040307998657227e-01 -1.030492931604385376e-01 8.900000000000000000e+01
5.365531444549560547e+00 -5.731936097145080566e-01 -1.033131405711174011e-01 9.400000000000000000e+01
5.408453464508056641e+00 -5.945708751678466797e-01 -1.047972738742828369e-01 9.300000000000000000e+01
5.421500682830810547e+00 -6.128463149070739746e-01 -1.052919849753379822e-01 8.400000000000000000e+01
5.443421363830566406e+00 -6.322459578514099121e-01 -1.060835197567939758e-01 6.200000000000000000e+01
5.462296962738037109e+00 -6.514304876327514648e-01 -1.067761182785034180e-01 6.300000000000000000e+01
5.485073566436767578e+00 -6.712227463722229004e-01 -1.076006367802619934e-01 5.600000000000000000e+01
5.514721870422363281e+00 -6.920325756072998047e-01 -1.086560189723968506e-01 5.200000000000000000e+01
5.527441978454589844e+00 -7.108618617057800293e-01 -1.091507300734519958e-01 5.200000000000000000e+01
5.574779510498046875e+00 -7.343472242355346680e-01 -1.107997670769691467e-01 5.700000000000000000e+01
5.606176376342773438e+00 -7.559911608695983887e-01 -1.119211092591285706e-01 7.500000000000000000e+01
5.662244796752929688e+00 -7.812519669532775879e-01 -1.138669773936271667e-01 5.600000000000000000e+01
5.659821033477783203e+00 -7.986198067665100098e-01 -1.138669773936271667e-01 6.100000000000000000e+01
5.708783149719238281e+00 -8.234038949012756348e-01 -1.155819743871688843e-01 4.500000000000000000e+01
5.725016593933105469e+00 -8.436844944953918457e-01 -1.162086054682731628e-01 6.900000000000000000e+01
5.748097419738769531e+00 -8.651142120361328125e-01 -1.170661076903343201e-01 4.300000000000000000e+01
5.823456287384033203e+00 -8.947422504425048828e-01 -1.196715831756591797e-01 7.500000000000000000e+01
5.891775608062744141e+00 -9.237564206123352051e-01 -1.220462024211883545e-01 4.200000000000000000e+01
5.868188858032226562e+00 -9.385114312171936035e-01 -1.213536038994789124e-01 5.000000000000000000e+01
5.902765274047851562e+00 -9.626263976097106934e-01 -1.226068735122680664e-01 6.200000000000000000e+01
5.950066089630126953e+00 -9.890939593315124512e-01 -1.242888867855072021e-01 6.200000000000000000e+01
5.989376068115234375e+00 -1.014524817466735840e+00 -1.257070600986480713e-01 9.500000000000000000e+01
6.024645805358886719e+00 -1.039525866508483887e+00 -1.269933134317398071e-01 7.700000000000000000e+01
6.079505443572998047e+00 -1.068213820457458496e+00 -1.289391815662384033e-01 6.200000000000000000e+01
6.092925071716308594e+00 -1.089853405952453613e+00 -1.294998526573181152e-01 9.700000000000000000e+01
6.132816791534423828e+00 -1.116420626640319824e+00 -1.309510022401809692e-01 8.700000000000000000e+01
6.131328582763671875e+00 -1.135594725608825684e+00 -1.310169547796249390e-01 9.200000000000000000e+01
6.171030998229980469e+00 -1.162544727325439453e+00 -1.324681192636489868e-01 8.500000000000000000e+01
6.246943950653076172e+00 -1.196709513664245605e+00 -1.351395547389984131e-01 1.050000000000000000e+02
6.307990074157714844e+00 -1.228483796119689941e+00 -1.373162865638732910e-01 8.700000000000000000e+01
6.345368862152099609e+00 -1.255984544754028320e+00 -1.387014687061309814e-01 9.800000000000000000e+01
6.338546276092529297e+00 -1.274854540824890137e+00 -1.386025249958038330e-01 9.900000000000000000e+01
6.372794628143310547e+00 -1.302100777626037598e+00 -1.398887783288955688e-01 9.900000000000000000e+01
6.392255783081054688e+00 -1.326521873474121094e+00 -1.406803131103515625e-01 9.900000000000000000e+01
6.414561271667480469e+00 -1.351692914962768555e+00 -1.415707916021347046e-01 6.400000000000000000e+01
4.252448081970214844e+00 -9.095510840415954590e-01 -6.874932348728179932e-02 7.600000000000000000e+01
4.345352172851562500e+00 -9.433841109275817871e-01 -7.198143750429153442e-02 1.670000000000000000e+02
4.338533401489257812e+00 -9.558504223823547363e-01 -7.184951007366180420e-02 1.340000000000000000e+02
4.348259925842285156e+00 -9.719921946525573730e-01 -7.227826118469238281e-02 1.500000000000000000e+02
4.358903408050537109e+00 -9.884237647056579590e-01 -7.273999601602554321e-02 1.500000000000000000e+02
4.372408390045166016e+00 -1.005602121353149414e+00 -7.330066710710525513e-02 1.420000000000000000e+02
4.391688823699951172e+00 -1.024235248565673828e+00 -7.405922561883926392e-02 1.630000000000000000e+02
4.390470981597900391e+00 -1.038164138793945312e+00 -7.412518560886383057e-02 1.610000000000000000e+02
4.382405757904052734e+00 -1.050463676452636719e+00 -7.396028190851211548e-02 1.740000000000000000e+02
4.372364044189453125e+00 -1.062251329421997070e+00 -7.372941821813583374e-02 1.400000000000000000e+02
4.365202903747558594e+00 -1.074704408645629883e+00 -7.359749078750610352e-02 1.730000000000000000e+02
4.355097293853759766e+00 -1.086397528648376465e+00 -7.336662709712982178e-02 1.480000000000000000e+02
4.358526229858398438e+00 -1.101468563079833984e+00 -7.359749078750610352e-02 1.540000000000000000e+02
4.358999252319335938e+00 -1.115826964378356934e+00 -7.372941821813583374e-02 1.200000000000000000e+02
4.354588031768798828e+00 -1.128944039344787598e+00 -7.369643449783325195e-02 1.820000000000000000e+02
4.346270561218261719e+00 -1.141028881072998047e+00 -7.353153079748153687e-02 1.460000000000000000e+02
4.333090782165527344e+00 -1.151789188385009766e+00 -7.320172339677810669e-02 1.450000000000000000e+02
4.332432270050048828e+00 -1.165856957435607910e+00 -7.330066710710525513e-02 1.540000000000000000e+02
4.344263553619384766e+00 -1.183347582817077637e+00 -7.382835447788238525e-02 1.510000000000000000e+02
4.332904815673828125e+00 -1.194544196128845215e+00 -7.356451451778411865e-02 1.830000000000000000e+02
4.334995746612548828e+00 -1.209443807601928711e+00 -7.376239448785781860e-02 1.600000000000000000e+02
4.326455593109130859e+00 -1.221379518508911133e+00 -7.359749078750610352e-02 1.700000000000000000e+02
4.328454017639160156e+00 -1.236294746398925781e+00 -7.379537820816040039e-02 1.510000000000000000e+02
4.333281993865966797e+00 -1.252066254615783691e+00 -7.409220188856124878e-02 1.460000000000000000e+02
4.334216594696044922e+00 -1.266757130622863770e+00 -7.425710558891296387e-02 1.310000000000000000e+02
4.333185195922851562e+00 -1.280898690223693848e+00 -7.435604929924011230e-02 1.360000000000000000e+02
4.329235076904296875e+00 -1.294186592102050781e+00 -7.435604929924011230e-02 1.200000000000000000e+02
4.341507434844970703e+00 -1.312380552291870117e+00 -7.491672039031982422e-02 1.240000000000000000e+02
4.339372634887695312e+00 -1.326278448104858398e+00 -7.498268038034439087e-02 1.320000000000000000e+02
4.336237907409667969e+00 -1.339880347251892090e+00 -7.501566410064697266e-02 1.150000000000000000e+02
4.326383113861083984e+00 -1.351388931274414062e+00 -7.481777667999267578e-02 1.340000000000000000e+02
4.323169708251953125e+00 -1.364956736564636230e+00 -7.485076040029525757e-02 1.240000000000000000e+02
4.329434871673583984e+00 -1.381556987762451172e+00 -7.521355152130126953e-02 1.380000000000000000e+02
4.327078342437744141e+00 -1.395446658134460449e+00 -7.527951151132583618e-02 1.090000000000000000e+02
4.321826934814453125e+00 -1.408405661582946777e+00 -7.524652779102325439e-02 1.120000000000000000e+02
4.323181152343750000e+00 -1.423534393310546875e+00 -7.544441521167755127e-02 1.240000000000000000e+02
4.315948486328125000e+00 -1.435844182968139648e+00 -7.534547150135040283e-02 1.380000000000000000e+02
4.319101810455322266e+00 -1.451626658439636230e+00 -7.560931891202926636e-02 1.020000000000000000e+02
4.318413257598876953e+00 -1.466156363487243652e+00 -7.574123889207839966e-02 1.090000000000000000e+02
4.329966545104980469e+00 -1.484911561012268066e+00 -7.630190998315811157e-02 1.080000000000000000e+02
4.315002441406250000e+00 -1.494589328765869141e+00 -7.593912631273269653e-02 1.090000000000000000e+02
4.310396671295166016e+00 -1.507820487022399902e+00 -7.593912631273269653e-02 1.140000000000000000e+02
4.300096035003662109e+00 -1.519039511680603027e+00 -7.574123889207839966e-02 1.130000000000000000e+02
4.302946090698242188e+00 -1.534911990165710449e+00 -7.600508630275726318e-02 9.300000000000000000e+01
4.310440540313720703e+00 -1.552510261535644531e+00 -7.643383741378784180e-02 8.200000000000000000e+01
4.300961017608642578e+00 -1.564018845558166504e+00 -7.626893371343612671e-02 9.700000000000000000e+01
4.294266223907470703e+00 -1.576517581939697266e+00 -7.620297372341156006e-02 8.300000000000000000e+01
4.286597728729248047e+00 -1.588642477989196777e+00 -7.610403001308441162e-02 9.300000000000000000e+01
4.276087284088134766e+00 -1.599684357643127441e+00 -7.590614259243011475e-02 8.300000000000000000e+01
4.274899482727050781e+00 -1.614208340644836426e+00 -7.603807002305984497e-02 1.050000000000000000e+02
4.279265880584716797e+00 -1.630876183509826660e+00 -7.636787742376327515e-02 1.000000000000000000e+02
4.268645763397216797e+00 -1.641843795776367188e+00 -7.616999000310897827e-02 8.800000000000000000e+01
4.268246650695800781e+00 -1.656740903854370117e+00 -7.633489370346069336e-02 9.900000000000000000e+01
4.267796993255615234e+00 -1.671650886535644531e+00 -7.649979740381240845e-02 9.200000000000000000e+01
4.249635696411132812e+00 -1.679592013359069824e+00 -7.603807002305984497e-02 7.800000000000000000e+01
4.251889705657958984e+00 -1.695584297180175781e+00 -7.630190998315811157e-02 9.600000000000000000e+01
4.265211105346679688e+00 -1.716084122657775879e+00 -7.696152478456497192e-02 1.010000000000000000e+02
4.259000301361083984e+00 -1.728785514831542969e+00 -7.692854851484298706e-02 1.060000000000000000e+02
4.276798248291015625e+00 -1.751314878463745117e+00 -7.775306701660156250e-02 7.300000000000000000e+01
4.276023387908935547e+00 -1.766336083412170410e+00 -7.791797071695327759e-02 8.200000000000000000e+01
4.297338008880615234e+00 -1.790597319602966309e+00 -7.887440919876098633e-02 7.700000000000000000e+01
4.294588088989257812e+00 -1.804934978485107422e+00 -7.897335290908813477e-02 7.400000000000000000e+01
4.288110256195068359e+00 -1.817711830139160156e+00 -7.894036918878555298e-02 6.800000000000000000e+01
4.276080608367919922e+00 -1.828108191490173340e+00 -7.870950549840927124e-02 7.900000000000000000e+01
4.273205280303955078e+00 -1.842405796051025391e+00 -7.880844920873641968e-02 6.800000000000000000e+01
4.274865150451660156e+00 -1.858696103096008301e+00 -7.907229661941528320e-02 9.000000000000000000e+01
4.265481472015380859e+00 -1.870196700096130371e+00 -7.894036918878555298e-02 7.700000000000000000e+01
4.265207767486572266e+00 -1.885699629783630371e+00 -7.913825660943984985e-02 9.700000000000000000e+01
4.265792369842529297e+00 -1.901625514030456543e+00 -7.936912029981613159e-02 8.500000000000000000e+01
4.245353221893310547e+00 -1.908146500587463379e+00 -7.884143292903900146e-02 7.800000000000000000e+01
4.249492168426513672e+00 -1.925700902938842773e+00 -7.920421659946441650e-02 1.000000000000000000e+02
4.239928245544433594e+00 -1.937067508697509766e+00 -7.907229661941528320e-02 8.300000000000000000e+01
4.228518962860107422e+00 -1.947556972503662109e+00 -7.887440919876098633e-02 8.600000000000000000e+01
4.227962970733642578e+00 -1.963046669960021973e+00 -7.907229661941528320e-02 9.100000000000000000e+01
4.243644237518310547e+00 -1.986179113388061523e+00 -7.986383140087127686e-02 8.700000000000000000e+01
4.245665550231933594e+00 -2.003027915954589844e+00 -8.016066253185272217e-02 9.100000000000000000e+01
4.253038883209228516e+00 -2.022483825683593750e+00 -8.065537363290786743e-02 3.900000000000000000e+01
9.505556106567382812e+00 -8.441965103149414062e+00 -3.447651565074920654e-01 1.600000000000000000e+01
9.232196807861328125e+00 -8.249978065490722656e+00 -3.338155448436737061e-01 9.000000000000000000e+00
9.004697799682617188e+00 -8.096490859985351562e+00 -3.248447775840759277e-01 4.100000000000000000e+01
7.377214431762695312e+00 5.030797004699707031e+00 -2.448311001062393188e-01 1.100000000000000000e+01
7.359026908874511719e+00 4.952517509460449219e+00 -2.427205741405487061e-01 8.000000000000000000e+00
7.319352626800537109e+00 4.893260002136230469e+00 -2.403596490621566772e-01 5.300000000000000000e+01
7.338493347167968750e+00 4.873546123504638672e+00 -2.405385076999664307e-01 5.700000000000000000e+01
7.365089416503906250e+00 4.858713150024414062e+00 -2.410393059253692627e-01 1.600000000000000000e+01
7.361571311950683594e+00 4.824044227600097656e+00 -2.402523308992385864e-01 6.200000000000000000e+01
7.304306507110595703e+00 4.754551887512207031e+00 -2.371759712696075439e-01 2.420000000000000000e+02
7.195491790771484375e+00 4.652359008789062500e+00 -2.319175451993942261e-01 7.200000000000000000e+01
7.208889961242675781e+00 4.629721641540527344e+00 -2.318817824125289917e-01 6.100000000000000000e+01
7.191885948181152344e+00 4.587697982788085938e+00 -2.305582314729690552e-01 5.800000000000000000e+01
7.090272903442382812e+00 4.492337703704833984e+00 -2.256575226783752441e-01 1.160000000000000000e+02
7.135317325592041016e+00 4.490257263183593750e+00 -2.269810736179351807e-01 9.500000000000000000e+01
7.120245933532714844e+00 4.450336933135986328e+00 -2.257648259401321411e-01 1.180000000000000000e+02
7.147451400756835938e+00 4.436904430389404297e+00 -2.263371795415878296e-01 1.090000000000000000e+02
7.182297229766845703e+00 4.428066730499267578e+00 -2.272314727306365967e-01 1.410000000000000000e+02
7.211189746856689453e+00 4.415403842926025391e+00 -2.278753519058227539e-01 1.190000000000000000e+02
7.243487834930419922e+00 4.404682159423828125e+00 -2.286623269319534302e-01 1.370000000000000000e+02
7.262955188751220703e+00 4.386054992675781250e+00 -2.289127409458160400e-01 1.240000000000000000e+02
7.302089214324951172e+00 4.379170894622802734e+00 -2.299858778715133667e-01 1.110000000000000000e+02
7.327510833740234375e+00 4.363906860351562500e+00 -2.304866909980773926e-01 1.150000000000000000e+02
7.353767395019531250e+00 4.349036216735839844e+00 -2.310232520103454590e-01 1.110000000000000000e+02
7.369660854339599609e+00 4.327972888946533203e+00 -2.311305701732635498e-01 1.100000000000000000e+02
7.395853996276855469e+00 4.312893867492675781e+00 -2.316671460866928101e-01 9.500000000000000000e+01
7.417699337005615234e+00 4.295191287994384766e+00 -2.320248633623123169e-01 8.900000000000000000e+01
7.448169231414794922e+00 4.282375812530517578e+00 -2.327402979135513306e-01 1.080000000000000000e+02
7.476027011871337891e+00 4.267927646636962891e+00 -2.333484143018722534e-01 9.600000000000000000e+01
7.517776012420654297e+00 4.261233329772949219e+00 -2.345288842916488647e-01 8.000000000000000000e+01
7.504686355590820312e+00 4.223445415496826172e+00 -2.334557324647903442e-01 3.400000000000000000e+01
7.524587631225585938e+00 4.204301357269287109e+00 -2.337419092655181885e-01 3.900000000000000000e+01
7.546190261840820312e+00 4.186043739318847656e+00 -2.340996116399765015e-01 3.400000000000000000e+01
7.563374042510986328e+00 4.165283203125000000e+00 -2.342784702777862549e-01 3.500000000000000000e+01
7.590147495269775391e+00 4.149729728698730469e+00 -2.348508238792419434e-01 4.800000000000000000e+01
7.627436637878417969e+00 4.139771461486816406e+00 -2.358524203300476074e-01 2.520000000000000000e+02
7.503732204437255859e+00 4.042881488800048828e+00 -2.303078323602676392e-01 6.000000000000000000e+00
7.674924373626708984e+00 4.074549198150634766e+00 -2.362459152936935425e-01 1.500000000000000000e+01
7.661749362945556641e+00 4.037473201751708984e+00 -2.352085411548614502e-01 1.000000000000000000e+01
6.013918399810791016e+00 3.075470209121704102e+00 -1.669920682907104492e-01 9.300000000000000000e+01
5.995698928833007812e+00 3.042985200881958008e+00 -1.658831387758255005e-01 1.360000000000000000e+02
5.985370635986328125e+00 3.014686584472656250e+00 -1.650961637496948242e-01 1.440000000000000000e+02
5.986546039581298828e+00 2.992288589477539062e+00 -1.647742241621017456e-01 1.420000000000000000e+02
5.976001739501953125e+00 2.964138984680175781e+00 -1.639872491359710693e-01 1.390000000000000000e+02
5.950994491577148438e+00 2.929021835327148438e+00 -1.626279354095458984e-01 1.640000000000000000e+02
5.954564571380615234e+00 2.908119201660156250e+00 -1.624132990837097168e-01 2.410000000000000000e+02
5.959861278533935547e+00 2.888094186782836914e+00 -1.622702181339263916e-01 2.160000000000000000e+02
5.971395969390869141e+00 2.871094942092895508e+00 -1.623775213956832886e-01 2.190000000000000000e+02
5.991000175476074219e+00 2.857924699783325195e+00 -1.628067940473556519e-01 2.590000000000000000e+02
6.007869720458984375e+00 2.843378543853759766e+00 -1.631287336349487305e-01 2.610000000000000000e+02
6.017469406127929688e+00 2.825357913970947266e+00 -1.631644964218139648e-01 2.480000000000000000e+02
5.946388244628906250e+00 2.769752740859985352e+00 -1.600165963172912598e-01 1.130000000000000000e+02
5.934899330139160156e+00 2.742274999618530273e+00 -1.592296212911605835e-01 1.070000000000000000e+02
5.898768424987792969e+00 2.703651905059814453e+00 -1.574768126010894775e-01 7.500000000000000000e+01
5.897937774658203125e+00 2.681406259536743164e+00 -1.571190953254699707e-01 1.020000000000000000e+02
5.889738082885742188e+00 2.655904769897460938e+00 -1.564752161502838135e-01 1.010000000000000000e+02
5.868665218353271484e+00 2.624767065048217773e+00 -1.553305238485336304e-01 1.020000000000000000e+02
5.825532436370849609e+00 2.584059238433837891e+00 -1.533273011445999146e-01 8.100000000000000000e+01
5.790438652038574219e+00 2.547262430191040039e+00 -1.516460478305816650e-01 8.300000000000000000e+01
5.762502193450927734e+00 2.513901948928833008e+00 -1.502509564161300659e-01 7.500000000000000000e+01
5.733499050140380859e+00 2.480340480804443359e+00 -1.488200873136520386e-01 9.100000000000000000e+01
5.741081237792968750e+00 2.462738513946533203e+00 -1.488200873136520386e-01 1.080000000000000000e+02
5.710904598236083984e+00 2.429077148437500000e+00 -1.473534554243087769e-01 7.900000000000000000e+01
5.671367645263671875e+00 2.391741275787353516e+00 -1.455290913581848145e-01 1.150000000000000000e+02
5.620591163635253906e+00 2.350045204162597656e+00 -1.432754844427108765e-01 9.800000000000000000e+01
5.634237289428710938e+00 2.335469007492065430e+00 -1.435258835554122925e-01 7.600000000000000000e+01
5.603476524353027344e+00 2.302599906921386719e+00 -1.420592516660690308e-01 7.900000000000000000e+01
5.578120708465576172e+00 2.272203683853149414e+00 -1.408072412014007568e-01 6.800000000000000000e+01
5.549851417541503906e+00 2.240862369537353516e+00 -1.394479274749755859e-01 8.100000000000000000e+01
5.545566558837890625e+00 2.219369649887084961e+00 -1.390186548233032227e-01 7.700000000000000000e+01
5.531912326812744141e+00 2.194239854812622070e+00 -1.382316797971725464e-01 8.700000000000000000e+01
5.529316902160644531e+00 2.173601865768432617e+00 -1.378739774227142334e-01 9.600000000000000000e+01
5.524785041809082031e+00 2.152275085449218750e+00 -1.374447047710418701e-01 6.700000000000000000e+01
5.493137359619140625e+00 2.120560169219970703e+00 -1.359780728816986084e-01 7.300000000000000000e+01
5.460413932800292969e+00 2.088702917098999023e+00 -1.344756633043289185e-01 8.200000000000000000e+01
5.454647541046142578e+00 2.067336797714233398e+00 -1.340106427669525146e-01 6.100000000000000000e+01
5.443188190460205078e+00 2.043918132781982422e+00 -1.333309710025787354e-01 7.700000000000000000e+01
5.395107269287109375e+00 2.007001161575317383e+00 -1.312562227249145508e-01 5.700000000000000000e+01
5.393737316131591797e+00 1.987675428390502930e+00 -1.309700459241867065e-01 8.100000000000000000e+01
5.396993637084960938e+00 1.970090389251708984e+00 -1.308627277612686157e-01 7.900000000000000000e+01
5.367299079895019531e+00 1.940611958503723145e+00 -1.295034140348434448e-01 7.200000000000000000e+01
5.315834999084472656e+00 1.903585910797119141e+00 -1.273213475942611694e-01 7.600000000000000000e+01
5.278322696685791016e+00 1.871904134750366211e+00 -1.256758421659469604e-01 7.400000000000000000e+01
5.301013469696044922e+00 1.861661672592163086e+00 -1.263197362422943115e-01 8.800000000000000000e+01
5.263279438018798828e+00 1.830291628837585449e+00 -1.246742457151412964e-01 7.500000000000000000e+01
5.257530689239501953e+00 1.810231685638427734e+00 -1.242449879646301270e-01 9.400000000000000000e+01
5.224277019500732422e+00 1.780874133110046387e+00 -1.227783486247062683e-01 7.700000000000000000e+01
5.183317661285400391e+00 1.749181747436523438e+00 -1.210255399346351624e-01 8.200000000000000000e+01
5.160223007202148438e+00 1.723773002624511719e+00 -1.199523881077766418e-01 7.000000000000000000e+01
5.160743236541748047e+00 1.706365108489990234e+00 -1.197735294699668884e-01 7.000000000000000000e+01
5.148857593536376953e+00 1.684929966926574707e+00 -1.191296428442001343e-01 6.900000000000000000e+01
5.144495010375976562e+00 1.666046857833862305e+00 -1.187719255685806274e-01 9.800000000000000000e+01
5.118175983428955078e+00 1.640192508697509766e+00 -1.175914630293846130e-01 8.400000000000000000e+01
5.127947330474853516e+00 1.625992655754089355e+00 -1.177703216671943665e-01 7.400000000000000000e+01
5.128143787384033203e+00 1.608757138252258301e+00 -1.175914630293846130e-01 8.300000000000000000e+01
5.113011360168457031e+00 1.586796879768371582e+00 -1.168402582406997681e-01 8.200000000000000000e+01
5.104480743408203125e+00 1.566997408866882324e+00 -1.163394600152969360e-01 8.600000000000000000e+01
5.059538364410400391e+00 1.536233186721801758e+00 -1.144793331623077393e-01 1.050000000000000000e+02
5.064227581024169922e+00 1.520703434944152832e+00 -1.144793331623077393e-01 1.210000000000000000e+02
5.044918537139892578e+00 1.498048305511474609e+00 -1.135850399732589722e-01 8.600000000000000000e+01
4.988121986389160156e+00 1.464547395706176758e+00 -1.112956628203392029e-01 1.070000000000000000e+02
4.972436904907226562e+00 1.443387389183044434e+00 -1.105444580316543579e-01 1.100000000000000000e+02
4.963393211364746094e+00 1.424266815185546875e+00 -1.100436523556709290e-01 1.050000000000000000e+02
4.951394557952880859e+00 1.404397249221801758e+00 -1.094355359673500061e-01 1.120000000000000000e+02
4.924887180328369141e+00 1.380569100379943848e+00 -1.082908436655998230e-01 1.080000000000000000e+02
4.904058933258056641e+00 1.358517408370971680e+00 -1.073607802391052246e-01 1.090000000000000000e+02
4.920734882354736328e+00 1.346895098686218262e+00 -1.078258156776428223e-01 1.240000000000000000e+02
4.923879146575927734e+00 1.331531286239624023e+00 -1.077900379896163940e-01 1.290000000000000000e+02
4.852631092071533203e+00 1.296303510665893555e+00 -1.049998551607131958e-01 1.300000000000000000e+02
4.850787162780761719e+00 1.279880285263061523e+00 -1.047852262854576111e-01 1.230000000000000000e+02
4.857592582702636719e+00 1.265748023986816406e+00 -1.048925369977951050e-01 1.060000000000000000e+02
4.835320949554443359e+00 1.244116544723510742e+00 -1.039267033338546753e-01 1.590000000000000000e+02
4.830397605895996094e+00 1.227061867713928223e+00 -1.036047637462615967e-01 1.520000000000000000e+02
4.816690921783447266e+00 1.207861900329589844e+00 -1.029608696699142456e-01 1.730000000000000000e+02
4.779630184173583984e+00 1.182995796203613281e+00 -1.014584675431251526e-01 1.560000000000000000e+02
4.766732692718505859e+00 1.164295911788940430e+00 -1.008503437042236328e-01 1.670000000000000000e+02
4.737249851226806641e+00 1.141706347465515137e+00 -9.963411092758178711e-02 1.670000000000000000e+02
4.733924388885498047e+00 1.125549435615539551e+00 -9.938371181488037109e-02 1.870000000000000000e+02
4.744165897369384766e+00 1.112617731094360352e+00 -9.963411092758178711e-02 1.940000000000000000e+02
4.749504566192626953e+00 1.098507881164550781e+00 -9.970565885305404663e-02 2.000000000000000000e+02
4.710955142974853516e+00 1.074377894401550293e+00 -9.816747903823852539e-02 1.810000000000000000e+02
4.698628902435302734e+00 1.056412935256958008e+00 -9.759513288736343384e-02 2.080000000000000000e+02
4.679406642913818359e+00 1.037020325660705566e+00 -9.677238017320632935e-02 2.280000000000000000e+02
4.670849800109863281e+00 1.020100831985473633e+00 -9.634312242269515991e-02 2.300000000000000000e+02
4.670049667358398438e+00 1.004925251007080078e+00 -9.620003402233123779e-02 1.930000000000000000e+02
4.657468318939208984e+00 9.872778058052062988e-01 -9.562768787145614624e-02 2.350000000000000000e+02
4.653627395629882812e+00 9.715548157691955566e-01 -9.537728875875473022e-02 2.460000000000000000e+02
4.636029243469238281e+00 9.530479311943054199e-01 -9.462608397006988525e-02 2.450000000000000000e+02
4.627177238464355469e+00 9.364419579505920410e-01 -9.419682621955871582e-02 2.670000000000000000e+02
4.615326881408691406e+00 9.193137288093566895e-01 -9.366025030612945557e-02 2.600000000000000000e+02
4.586742877960205078e+00 8.989999294281005859e-01 -9.251555800437927246e-02 2.590000000000000000e+02
4.567891120910644531e+00 8.807619810104370117e-01 -9.172858297824859619e-02 2.800000000000000000e+02
4.562716484069824219e+00 8.652544617652893066e-01 -9.144241362810134888e-02 3.080000000000000000e+02
4.535876750946044922e+00 8.457577228546142578e-01 -9.036926180124282837e-02 3.090000000000000000e+02
4.532552242279052734e+00 8.307570815086364746e-01 -9.015463292598724365e-02 3.200000000000000000e+02
4.520326614379882812e+00 8.141907453536987305e-01 -8.961805701255798340e-02 3.010000000000000000e+02
4.509026050567626953e+00 7.978813648223876953e-01 -8.911725878715515137e-02 3.240000000000000000e+02
4.501606464385986328e+00 7.823333740234375000e-01 -8.875954151153564453e-02 3.210000000000000000e+02
4.489208698272705078e+00 7.659980654716491699e-01 -8.822296559810638428e-02 3.190000000000000000e+02
4.466896533966064453e+00 7.480959296226501465e-01 -8.732867985963821411e-02 3.250000000000000000e+02
4.463253974914550781e+00 7.334161400794982910e-01 -8.711404353380203247e-02 3.110000000000000000e+02
4.469429492950439453e+00 7.203555107116699219e-01 -8.725713193416595459e-02 3.570000000000000000e+02
4.460760116577148438e+00 7.049246430397033691e-01 -8.686364442110061646e-02 3.670000000000000000e+02
4.447100639343261719e+00 6.887890696525573730e-01 -8.629129827022552490e-02 3.430000000000000000e+02
4.438323974609375000e+00 6.734935045242309570e-01 -8.589781075716018677e-02 3.370000000000000000e+02
4.428507328033447266e+00 6.581113934516906738e-01 -8.546855300664901733e-02 3.500000000000000000e+02
4.413693428039550781e+00 6.420766711235046387e-01 -8.486043661832809448e-02 3.370000000000000000e+02
4.397833347320556641e+00 6.259983777999877930e-01 -8.421654254198074341e-02 3.650000000000000000e+02
4.385875701904296875e+00 6.105744242668151855e-01 -8.371574431657791138e-02 3.420000000000000000e+02
4.377825736999511719e+00 5.957686305046081543e-01 -8.335802704095840454e-02 3.670000000000000000e+02
4.361801624298095703e+00 5.799645781517028809e-01 -8.271414041519165039e-02 3.830000000000000000e+02
4.356622695922851562e+00 5.656795501708984375e-01 -8.246373385190963745e-02 3.890000000000000000e+02
4.341483592987060547e+00 5.501757264137268066e-01 -8.185561746358871460e-02 3.570000000000000000e+02
4.328273773193359375e+00 5.350152254104614258e-01 -8.131904155015945435e-02 3.690000000000000000e+02
4.322949409484863281e+00 5.208971500396728516e-01 -8.106864243745803833e-02 3.730000000000000000e+02
4.309638977050781250e+00 5.058850049972534180e-01 -8.053206652402877808e-02 3.590000000000000000e+02
4.300248622894287109e+00 4.914131462574005127e-01 -8.013857901096343994e-02 3.860000000000000000e+02
4.293790340423583984e+00 4.773348271846771240e-01 -7.985240966081619263e-02 3.340000000000000000e+02
4.284305095672607422e+00 4.629787802696228027e-01 -7.945892214775085449e-02 3.460000000000000000e+02
4.273778438568115234e+00 4.485811591148376465e-01 -7.902966439723968506e-02 3.750000000000000000e+02
4.263204097747802734e+00 4.342524707317352295e-01 -7.860039919614791870e-02 3.430000000000000000e+02
4.255565166473388672e+00 4.202874600887298584e-01 -7.827845960855484009e-02 3.510000000000000000e+02
4.246886730194091797e+00 4.062782824039459229e-01 -7.792074233293533325e-02 3.470000000000000000e+02
4.230201244354248047e+00 3.915897011756896973e-01 -7.727685570716857910e-02 3.720000000000000000e+02
4.217447280883789062e+00 3.773634433746337891e-01 -7.677605003118515015e-02 3.440000000000000000e+02
4.199667453765869141e+00 3.627892732620239258e-01 -7.609638571739196777e-02 3.370000000000000000e+02
4.201756954193115234e+00 3.499861061573028564e-01 -7.613216340541839600e-02 3.550000000000000000e+02
4.188864231109619141e+00 3.359755873680114746e-01 -7.563135772943496704e-02 3.590000000000000000e+02
4.176922321319580078e+00 3.221243321895599365e-01 -7.516632974147796631e-02 3.890000000000000000e+02
4.187857151031494141e+00 3.100456595420837402e-01 -7.552403956651687622e-02 3.470000000000000000e+02
4.192776203155517578e+00 2.974787652492523193e-01 -7.566712796688079834e-02 3.510000000000000000e+02
4.197657108306884766e+00 2.848846316337585449e-01 -7.581021636724472046e-02 3.800000000000000000e+02
4.210478782653808594e+00 2.727799117565155029e-01 -7.623947411775588989e-02 3.520000000000000000e+02
4.221270561218261719e+00 2.604761421680450439e-01 -7.659719139337539673e-02 3.460000000000000000e+02
4.244995594024658203e+00 2.488685995340347290e-01 -7.741993665695190430e-02 3.660000000000000000e+02
4.265695571899414062e+00 2.369517236948013306e-01 -7.813537120819091797e-02 3.440000000000000000e+02
4.285364627838134766e+00 2.248578518629074097e-01 -7.881502807140350342e-02 3.380000000000000000e+02
4.304998874664306641e+00 2.126455157995223999e-01 -7.949469238519668579e-02 3.420000000000000000e+02
4.319607257843017578e+00 2.000838071107864380e-01 -7.999549806118011475e-02 3.180000000000000000e+02
4.335176944732666016e+00 1.874775886535644531e-01 -8.053206652402877808e-02 3.180000000000000000e+02
4.349711418151855469e+00 1.747376322746276855e-01 -8.103287220001220703e-02 3.020000000000000000e+02
4.366206169128417969e+00 1.619842797517776489e-01 -8.160521835088729858e-02 3.210000000000000000e+02
4.384660243988037109e+00 1.491992622613906860e-01 -8.224910497665405273e-02 3.410000000000000000e+02
4.411068439483642578e+00 1.365495920181274414e-01 -8.317916840314865112e-02 3.150000000000000000e+02
4.426451206207275391e+00 1.234332695603370667e-01 -8.371574431657791138e-02 3.270000000000000000e+02
4.459777832031250000e+00 1.106694266200065613e-01 -8.489620685577392578e-02 3.100000000000000000e+02
4.472085952758789062e+00 9.724676609039306641e-02 -8.532546460628509521e-02 3.020000000000000000e+02
4.473362445831298828e+00 8.354476839303970337e-02 -8.536123484373092651e-02 3.080000000000000000e+02
4.495581150054931641e+00 7.016257196664810181e-02 -8.614820986986160278e-02 3.430000000000000000e+02
4.522755622863769531e+00 5.670729652047157288e-02 -8.711404353380203247e-02 2.890000000000000000e+02
4.538897514343261719e+00 4.298223927617073059e-02 -8.768638968467712402e-02 2.890000000000000000e+02
4.557995319366455078e+00 2.917775325477123260e-02 -8.836605399847030640e-02 3.030000000000000000e+02
4.572054386138916016e+00 1.524001173675060272e-02 -8.886685222387313843e-02 3.020000000000000000e+02
4.596064090728759766e+00 1.218569581396877766e-03 -8.972537517547607422e-02 2.600000000000000000e+02
4.610037326812744141e+00 -1.292168162763118744e-02 -9.022617340087890625e-02 2.890000000000000000e+02
4.608976840972900391e+00 -2.705911360681056976e-02 -9.019040316343307495e-02 2.510000000000000000e+02
4.634854316711425781e+00 -4.143232107162475586e-02 -9.112046658992767334e-02 2.890000000000000000e+02
4.649694442749023438e+00 -5.583217740058898926e-02 -9.165704250335693359e-02 2.310000000000000000e+02
4.675481796264648438e+00 -7.048959285020828247e-02 -9.258710592985153198e-02 2.460000000000000000e+02
4.694228172302246094e+00 -8.517859131097793579e-02 -9.326676279306411743e-02 2.310000000000000000e+02
4.701938152313232422e+00 -9.974972903728485107e-02 -9.355293959379196167e-02 2.220000000000000000e+02
4.738574981689453125e+00 -1.150735765695571899e-01 -9.487649053335189819e-02 2.380000000000000000e+02
4.797140121459960938e+00 -1.312251240015029907e-01 -9.698700904846191406e-02 1.850000000000000000e+02
4.821687221527099609e+00 -1.467025727033615112e-01 -9.788130223751068115e-02 1.820000000000000000e+02
4.820215702056884766e+00 -1.614611297845840454e-01 -9.784553200006484985e-02 1.740000000000000000e+02
4.821694850921630859e+00 -1.763216853141784668e-01 -9.791707247495651245e-02 1.810000000000000000e+02
4.840104103088378906e+00 -1.918663680553436279e-01 -9.859673678874969482e-02 1.530000000000000000e+02
4.860460281372070312e+00 -2.076110094785690308e-01 -9.934794157743453979e-02 1.610000000000000000e+02
4.905722618103027344e+00 -2.246259897947311401e-01 -1.009934321045875549e-01 1.430000000000000000e+02
4.909003257751464844e+00 -2.398707121610641479e-01 -1.011365205049514771e-01 1.510000000000000000e+02
4.938184738159179688e+00 -2.564862966537475586e-01 -1.022096648812294006e-01 1.470000000000000000e+02
4.956333637237548828e+00 -2.726789116859436035e-01 -1.028893291950225830e-01 1.200000000000000000e+02
4.968443393707275391e+00 -2.886373400688171387e-01 -1.033543571829795837e-01 1.330000000000000000e+02
4.995464324951171875e+00 -3.055884540081024170e-01 -1.043559685349464417e-01 1.050000000000000000e+02
5.008465766906738281e+00 -3.218104541301727295e-01 -1.048567667603492737e-01 1.320000000000000000e+02
5.036370754241943359e+00 -3.391226828098297119e-01 -1.058941483497619629e-01 1.180000000000000000e+02
5.080166339874267578e+00 -3.577328622341156006e-01 -1.075038686394691467e-01 1.040000000000000000e+02
5.108945369720458984e+00 -3.755155801773071289e-01 -1.085770130157470703e-01 8.600000000000000000e+01
5.156594753265380859e+00 -3.949288129806518555e-01 -1.103298291563987732e-01 8.200000000000000000e+01
5.149381637573242188e+00 -4.102707505226135254e-01 -1.101151928305625916e-01 6.600000000000000000e+01
5.154074192047119141e+00 -4.265616536140441895e-01 -1.103298291563987732e-01 8.200000000000000000e+01
5.184603691101074219e+00 -4.451085925102233887e-01 -1.114745140075683594e-01 7.700000000000000000e+01
5.166291236877441406e+00 -4.595069587230682373e-01 -1.108663976192474365e-01 1.010000000000000000e+02
5.251435279846191406e+00 -4.833258986473083496e-01 -1.139785274863243103e-01 7.400000000000000000e+01
5.255897045135498047e+00 -5.000028610229492188e-01 -1.141931563615798950e-01 7.400000000000000000e+01
5.297104835510253906e+00 -5.203275680541992188e-01 -1.157313361763954163e-01 6.600000000000000000e+01
5.314374923706054688e+00 -5.384911894798278809e-01 -1.164110004901885986e-01 6.800000000000000000e+01
5.365376949310302734e+00 -5.602958202362060547e-01 -1.183068975806236267e-01 6.100000000000000000e+01
5.361645698547363281e+00 -5.765401721000671387e-01 -1.182353496551513672e-01 6.900000000000000000e+01
5.423422336578369141e+00 -6.000218987464904785e-01 -1.205247342586517334e-01 7.000000000000000000e+01
5.448365688323974609e+00 -6.197081208229064941e-01 -1.214905679225921631e-01 8.400000000000000000e+01
5.470261573791503906e+00 -6.392049193382263184e-01 -1.223490908741950989e-01 6.200000000000000000e+01
5.494072914123535156e+00 -6.590800285339355469e-01 -1.232791543006896973e-01 7.400000000000000000e+01
5.512854576110839844e+00 -6.784967184066772461e-01 -1.240303516387939453e-01 5.700000000000000000e+01
5.525619506835937500e+00 -6.972839832305908203e-01 -1.245669275522232056e-01 6.200000000000000000e+01
5.516516208648681641e+00 -7.133356928825378418e-01 -1.243165284395217896e-01 4.700000000000000000e+01
5.578697681427001953e+00 -7.387866377830505371e-01 -1.266416758298873901e-01 6.800000000000000000e+01
5.630871295928955078e+00 -7.632831335067749023e-01 -1.286091208457946777e-01 5.400000000000000000e+01
5.654240131378173828e+00 -7.841247320175170898e-01 -1.295391768217086792e-01 5.900000000000000000e+01
5.676544189453125000e+00 -8.049765229225158691e-01 -1.304334700107574463e-01 5.500000000000000000e+01
5.701740741729736328e+00 -8.264026641845703125e-01 -1.314350813627243042e-01 5.500000000000000000e+01
5.724881172180175781e+00 -8.476981520652770996e-01 -1.323651373386383057e-01 4.500000000000000000e+01
5.769683837890625000e+00 -8.724310994148254395e-01 -1.340821832418441772e-01 5.200000000000000000e+01
5.775868892669677734e+00 -8.915004134178161621e-01 -1.344041228294372559e-01 5.100000000000000000e+01
5.820491790771484375e+00 -9.166804552078247070e-01 -1.361211538314819336e-01 5.400000000000000000e+01
5.877840995788574219e+00 -9.442034959793090820e-01 -1.383032351732254028e-01 7.400000000000000000e+01
5.928172111511230469e+00 -9.709560871124267578e-01 -1.402349025011062622e-01 6.200000000000000000e+01
5.940936565399169922e+00 -9.917721748352050781e-01 -1.408072412014007568e-01 4.900000000000000000e+01
5.987126350402832031e+00 -1.018374323844909668e+00 -1.425958275794982910e-01 6.300000000000000000e+01
6.026315212249755859e+00 -1.044074773788452148e+00 -1.441339999437332153e-01 7.300000000000000000e+01
6.072291851043701172e+00 -1.071240663528442383e+00 -1.459225863218307495e-01 7.200000000000000000e+01
6.092583656311035156e+00 -1.094105124473571777e+00 -1.467811018228530884e-01 5.600000000000000000e+01
6.128520965576171875e+00 -1.119979023933410645e+00 -1.482119709253311157e-01 8.100000000000000000e+01
6.177129745483398438e+00 -1.148458838462829590e+00 -1.501078605651855469e-01 7.600000000000000000e+01
6.228566646575927734e+00 -1.177804350852966309e+00 -1.521110683679580688e-01 7.500000000000000000e+01
6.283806324005126953e+00 -1.208231210708618164e+00 -1.542573720216751099e-01 9.300000000000000000e+01
6.277127742767333984e+00 -1.226928710937500000e+00 -1.541500538587570190e-01 6.900000000000000000e+01
6.328225612640380859e+00 -1.257086396217346191e+00 -1.561532616615295410e-01 7.300000000000000000e+01
6.346869945526123047e+00 -1.281043410301208496e+00 -1.569760143756866455e-01 6.700000000000000000e+01
6.361510276794433594e+00 -1.304323554039001465e+00 -1.576556712388992310e-01 8.200000000000000000e+01
6.379003047943115234e+00 -1.328316807746887207e+00 -1.584426462650299072e-01 6.400000000000000000e+01
6.444317340850830078e+00 -1.362560749053955078e+00 -1.609824299812316895e-01 3.700000000000000000e+01
4.277784824371337891e+00 -9.181405901908874512e-01 -8.181984722614288330e-02 1.010000000000000000e+02
4.341346740722656250e+00 -9.457273483276367188e-01 -8.425232023000717163e-02 1.520000000000000000e+02
4.332570075988769531e+00 -9.577475190162658691e-01 -8.403768390417098999e-02 1.300000000000000000e+02
4.347163677215576172e+00 -9.749724268913269043e-01 -8.468157798051834106e-02 1.630000000000000000e+02
4.350973129272460938e+00 -9.898568391799926758e-01 -8.493197709321975708e-02 1.620000000000000000e+02
4.374207496643066406e+00 -1.009268164634704590e+00 -8.589781075716018677e-02 1.840000000000000000e+02
4.397363662719726562e+00 -1.028831243515014648e+00 -8.686364442110061646e-02 1.720000000000000000e+02
4.375711441040039062e+00 -1.037934303283691406e+00 -8.618398755788803101e-02 1.810000000000000000e+02
4.385138034820556641e+00 -1.054391622543334961e+00 -8.664901554584503174e-02 1.770000000000000000e+02
4.375085830688476562e+00 -1.066183447837829590e+00 -8.639861643314361572e-02 1.860000000000000000e+02
4.364032745361328125e+00 -1.077684044837951660e+00 -8.611243963241577148e-02 1.630000000000000000e+02
4.354889392852783203e+00 -1.089612007141113281e+00 -8.589781075716018677e-02 2.070000000000000000e+02
4.353463172912597656e+00 -1.103458642959594727e+00 -8.596935123205184937e-02 1.690000000000000000e+02
4.343281745910644531e+00 -1.115069866180419922e+00 -8.571895211935043335e-02 1.540000000000000000e+02
4.328233718872070312e+00 -1.125371456146240234e+00 -8.528969436883926392e-02 1.940000000000000000e+02
4.340223789215087891e+00 -1.142716646194458008e+00 -8.586204051971435547e-02 1.800000000000000000e+02
4.342491149902343750e+00 -1.157571554183959961e+00 -8.607666939496994019e-02 1.490000000000000000e+02
4.343743324279785156e+00 -1.172190666198730469e+00 -8.625552803277969360e-02 1.470000000000000000e+02
4.343983173370361328e+00 -1.186565041542053223e+00 -8.639861643314361572e-02 1.390000000000000000e+02
4.341285228729248047e+00 -1.200152993202209473e+00 -8.643438667058944702e-02 1.250000000000000000e+02
4.328921318054199219e+00 -1.211042761802673340e+00 -8.611243963241577148e-02 1.460000000000000000e+02
4.328070163726806641e+00 -1.225134611129760742e+00 -8.621975779533386230e-02 1.530000000000000000e+02
4.319487571716308594e+00 -1.237031340599060059e+00 -8.604089915752410889e-02 1.360000000000000000e+02
4.332950115203857422e+00 -1.255283713340759277e+00 -8.668478578329086304e-02 1.390000000000000000e+02
4.332914352416992188e+00 -1.269695401191711426e+00 -8.682787418365478516e-02 1.610000000000000000e+02
4.334747791290283203e+00 -1.284686565399169922e+00 -8.704250305891036987e-02 1.500000000000000000e+02
4.336529731750488281e+00 -1.299701094627380371e+00 -8.725713193416595459e-02 1.290000000000000000e+02
4.328696250915527344e+00 -1.311839699745178223e+00 -8.711404353380203247e-02 1.200000000000000000e+02
4.331339836120605469e+00 -1.327163457870483398e+00 -8.736445009708404541e-02 1.130000000000000000e+02
4.332975387573242188e+00 -1.342220067977905273e+00 -8.757907897233963013e-02 1.500000000000000000e+02
4.326929569244384766e+00 -1.354909777641296387e+00 -8.750753104686737061e-02 1.280000000000000000e+02
4.324657917022705078e+00 -1.368781447410583496e+00 -8.757907897233963013e-02 1.200000000000000000e+02
4.322341918945312500e+00 -1.382651925086975098e+00 -8.765061944723129272e-02 1.180000000000000000e+02
4.321883201599121094e+00 -1.397135853767395020e+00 -8.779370784759521484e-02 1.090000000000000000e+02
