# .PCD v.7 - Point Cloud Data file format
VERSION .7
FIELDS x y z intensity
SIZE 4 4 4 4
TYPE F F F F
COUNT 1 1 1 1
WIDTH 471
HEIGHT 1
VIEWPOINT 0 0 0 1 0 0 0
POINTS 471
DATA ascii
4.097357749938964844e+00 9.445636272430419922e-01 -3.573305010795593262e-01 4.510000000000000000e+02
4.104115962982177734e+00 9.328710436820983887e-01 -3.577402830123901367e-01 4.400000000000000000e+02
4.114724159240722656e+00 9.220163226127624512e-01 -3.585598468780517578e-01 4.200000000000000000e+02
4.128217697143554688e+00 9.117492437362670898e-01 -3.596867322921752930e-01 4.070000000000000000e+02
4.156266689300537109e+00 9.045829772949218750e-01 -3.623503148555755615e-01 4.370000000000000000e+02
4.173611164093017578e+00 8.949576020240783691e-01 -3.638869822025299072e-01 4.250000000000000000e+02
4.196775436401367188e+00 8.864684700965881348e-01 -3.660383522510528564e-01 4.580000000000000000e+02
4.217978477478027344e+00 8.774402141571044922e-01 -3.679848015308380127e-01 4.230000000000000000e+02
4.241115093231201172e+00 8.686895370483398438e-01 -3.701361417770385742e-01 4.640000000000000000e+02
4.259361267089843750e+00 8.588215112686157227e-01 -3.717752695083618164e-01 4.550000000000000000e+02
4.276611804962158203e+00 8.486559391021728516e-01 -3.733119666576385498e-01 4.630000000000000000e+02
4.302625656127929688e+00 8.401092886924743652e-01 -3.757706582546234131e-01 4.120000000000000000e+02
4.319836139678955078e+00 8.297212123870849609e-01 -3.773073256015777588e-01 4.290000000000000000e+02
4.332135677337646484e+00 8.183116912841796875e-01 -3.783317804336547852e-01 4.210000000000000000e+02
4.346361637115478516e+00 8.071979880332946777e-01 -3.795611262321472168e-01 4.170000000000000000e+02
4.366431236267089844e+00 7.970771193504333496e-01 -3.814051449298858643e-01 3.930000000000000000e+02
4.394312858581542969e+00 7.882466316223144531e-01 -3.840687274932861328e-01 3.890000000000000000e+02
4.412384510040283203e+00 7.775251865386962891e-01 -3.857078552246093750e-01 4.200000000000000000e+02
4.432391643524169922e+00 7.670396566390991211e-01 -3.875518441200256348e-01 3.440000000000000000e+02
4.462182521820068359e+00 7.581059336662292480e-01 -3.904203176498413086e-01 3.320000000000000000e+02
4.491960525512695312e+00 7.489965558052062988e-01 -3.932887911796569824e-01 3.420000000000000000e+02
4.505035400390625000e+00 7.369796037673950195e-01 -3.944157063961029053e-01 3.500000000000000000e+02
4.518079280853271484e+00 7.248894572257995605e-01 -3.955425918102264404e-01 3.540000000000000000e+02
4.528142929077148438e+00 7.122622132301330566e-01 -3.963621556758880615e-01 3.010000000000000000e+02
4.569631099700927734e+00 7.044331431388854980e-01 -4.004599750041961670e-01 2.950000000000000000e+02
4.587508201599121094e+00 6.927887201309204102e-01 -4.020991027355194092e-01 3.200000000000000000e+02
4.613228321075439453e+00 6.822061538696289062e-01 -4.045577645301818848e-01 3.100000000000000000e+02
4.621206283569335938e+00 6.689054369926452637e-01 -4.051724374294281006e-01 2.620000000000000000e+02
4.646874427795410156e+00 6.580746769905090332e-01 -4.076311290264129639e-01 2.540000000000000000e+02
4.672519207000732422e+00 6.470926403999328613e-01 -4.100898206233978271e-01 2.640000000000000000e+02
4.692225456237792969e+00 6.351582407951354980e-01 -4.119338393211364746e-01 2.210000000000000000e+02
4.704013347625732422e+00 6.220648288726806641e-01 -4.129582941532135010e-01 2.130000000000000000e+02
4.700967311859130859e+00 6.069927811622619629e-01 -4.124460816383361816e-01 2.110000000000000000e+02
4.750179290771484375e+00 5.985416769981384277e-01 -4.173634350299835205e-01 2.340000000000000000e+02
4.773714065551757812e+00 5.866370201110839844e-01 -4.196172356605529785e-01 1.980000000000000000e+02
4.816973209381103516e+00 5.769616961479187012e-01 -4.239199459552764893e-01 1.500000000000000000e+02
4.826624870300292969e+00 5.631036758422851562e-01 -4.247395098209381104e-01 1.740000000000000000e+02
4.863911151885986328e+00 5.523374080657958984e-01 -4.284275472164154053e-01 1.730000000000000000e+02
4.894255638122558594e+00 5.405824780464172363e-01 -4.313984513282775879e-01 1.470000000000000000e+02
4.908748626708984375e+00 5.269461274147033691e-01 -4.327302277088165283e-01 1.460000000000000000e+02
4.959810733795166016e+00 5.170457959175109863e-01 -4.378525018692016602e-01 1.380000000000000000e+02
4.982156753540039062e+00 5.039311051368713379e-01 -4.400038421154022217e-01 1.310000000000000000e+02
5.006449222564697266e+00 4.908785521984100342e-01 -4.423601031303405762e-01 1.300000000000000000e+02
5.030707836151123047e+00 4.776816368103027344e-01 -4.447163343429565430e-01 1.440000000000000000e+02
5.054932594299316406e+00 4.643404781818389893e-01 -4.470725953578948975e-01 1.240000000000000000e+02
5.082095146179199219e+00 4.511193037033081055e-01 -4.497361481189727783e-01 1.210000000000000000e+02
5.128054618835449219e+00 4.393510222434997559e-01 -4.543462097644805908e-01 8.800000000000000000e+01
5.139291763305664062e+00 4.244360029697418213e-01 -4.553706645965576172e-01 1.200000000000000000e+02
5.165359973907470703e+00 4.106400609016418457e-01 -4.579317867755889893e-01 9.100000000000000000e+01
5.186432361602783203e+00 3.963087499141693115e-01 -4.599806964397430420e-01 1.280000000000000000e+02
5.220361709594726562e+00 3.827989101409912109e-01 -4.633613824844360352e-01 8.600000000000000000e+01
5.251280307769775391e+00 3.688752055168151855e-01 -4.664347469806671143e-01 1.010000000000000000e+02
5.280177116394042969e+00 3.546318709850311279e-01 -4.693032205104827881e-01 9.100000000000000000e+01
5.295137882232666016e+00 3.393227756023406982e-01 -4.707374572753906250e-01 1.170000000000000000e+02
5.333883762359619141e+00 3.253810703754425049e-01 -4.746303856372833252e-01 9.500000000000000000e+01
5.392455101013183594e+00 3.123571574687957764e-01 -4.805721938610076904e-01 7.700000000000000000e+01
5.404313564300537109e+00 2.964121103286743164e-01 -4.816991090774536133e-01 6.700000000000000000e+01
5.430032730102539062e+00 2.811185717582702637e-01 -4.842602312564849854e-01 8.700000000000000000e+01
5.452727794647216797e+00 2.655245363712310791e-01 -4.865140318870544434e-01 1.040000000000000000e+02
5.487302780151367188e+00 2.503390312194824219e-01 -4.899971783161163330e-01 8.500000000000000000e+01
5.491026401519775391e+00 2.336301654577255249e-01 -4.903044998645782471e-01 1.070000000000000000e+02
5.545391082763671875e+00 2.189064919948577881e-01 -4.958365559577941895e-01 9.700000000000000000e+01
5.582817554473876953e+00 2.032347023487091064e-01 -4.996270239353179932e-01 8.100000000000000000e+01
5.610257625579833984e+00 1.870030462741851807e-01 -5.023930668830871582e-01 9.800000000000000000e+01
5.662507534027099609e+00 1.713593602180480957e-01 -5.077202320098876953e-01 1.010000000000000000e+02
5.663006782531738281e+00 1.539862155914306641e-01 -5.077202320098876953e-01 1.180000000000000000e+02
5.741019248962402344e+00 1.384895592927932739e-01 -5.157109498977661133e-01 9.800000000000000000e+01
5.760313034057617188e+00 1.212751716375350952e-01 -5.176573991775512695e-01 1.070000000000000000e+02
5.783533096313476562e+00 1.040156036615371704e-01 -5.200136303901672363e-01 1.200000000000000000e+02
5.810679912567138672e+00 8.667438477277755737e-02 -5.227796435356140137e-01 9.900000000000000000e+01
5.950171947479248047e+00 7.050894945859909058e-02 -5.371220111846923828e-01 4.800000000000000000e+01
5.773303985595703125e+00 5.068396776914596558e-02 -5.188867449760437012e-01 1.100000000000000000e+01
5.820184230804443359e+00 3.324254229664802551e-02 -5.237016677856445312e-01 7.000000000000000000e+00
5.938632011413574219e+00 1.570945046842098236e-02 -5.358926653861999512e-01 5.000000000000000000e+00
6.153020858764648438e+00 -7.809565961360931396e-02 -5.580208301544189453e-01 1.000000000000000000e+01
6.226354122161865234e+00 -9.812651574611663818e-02 -5.656018257141113281e-01 5.000000000000000000e+00
6.258844375610351562e+00 -1.178435608744621277e-01 -5.689824819564819336e-01 8.000000000000000000e+00
6.270387172698974609e+00 -1.373052448034286499e-01 -5.702118277549743652e-01 6.000000000000000000e+00
6.495549201965332031e+00 -2.020442485809326172e-01 -5.935693979263305664e-01 8.000000000000000000e+00
6.571449279785156250e+00 -2.245816439390182495e-01 -6.014576554298400879e-01 6.000000000000000000e+00
6.638764858245849609e+00 -3.288945257663726807e-01 -6.088337302207946777e-01 1.300000000000000000e+01
6.638718128204345703e+00 -3.493126034736633301e-01 -6.089361906051635742e-01 2.200000000000000000e+01
6.720050811767578125e+00 -3.742632269859313965e-01 -6.174391508102416992e-01 1.600000000000000000e+01
6.747668743133544922e+00 -3.965686261653900146e-01 -6.204100251197814941e-01 9.000000000000000000e+00
6.776873588562011719e+00 -4.400242269039154053e-01 -6.236882805824279785e-01 2.000000000000000000e+01
6.846948146820068359e+00 -4.656679034233093262e-01 -6.310643553733825684e-01 1.600000000000000000e+01
7.013597011566162109e+00 -5.202419161796569824e-01 -6.485825181007385254e-01 7.000000000000000000e+00
6.919731616973876953e+00 -5.346372127532958984e-01 -6.390550732612609863e-01 1.100000000000000000e+01
6.864515304565429688e+00 -5.515657663345336914e-01 -6.335230469703674316e-01 1.000000000000000000e+01
6.783486843109130859e+00 -5.660120248794555664e-01 -6.253274083137512207e-01 7.000000000000000000e+00
6.991819381713867188e+00 -6.049851775169372559e-01 -6.470458507537841797e-01 2.000000000000000000e+01
6.913640499114990234e+00 -6.196014285087585449e-01 -6.391575336456298828e-01 1.200000000000000000e+01
7.052357673645019531e+00 -6.538392305374145508e-01 -6.537047624588012695e-01 1.500000000000000000e+01
7.214693546295166016e+00 -6.912090182304382324e-01 -6.707106828689575195e-01 9.000000000000000000e+00
6.901705741882324219e+00 -6.826195716857910156e-01 -6.385428905487060547e-01 1.500000000000000000e+01
7.165784358978271484e+00 -7.309252619743347168e-01 -6.661006808280944824e-01 7.000000000000000000e+00
7.611659526824951172e+00 -7.999766469001770020e-01 -7.125083804130554199e-01 8.000000000000000000e+00
7.773338794708251953e+00 -8.410776853561401367e-01 -7.295143008232116699e-01 1.300000000000000000e+01
7.636266708374023438e+00 -8.499651551246643066e-01 -7.155817747116088867e-01 9.000000000000000000e+00
7.635600090026855469e+00 -8.736149072647094727e-01 -7.157866358757019043e-01 1.000000000000000000e+01
7.893701553344726562e+00 -9.276712536811828613e-01 -7.428321838378906250e-01 8.000000000000000000e+00
8.098973274230957031e+00 -1.027436494827270508e+00 -7.650628089904785156e-01 8.000000000000000000e+00
8.155956268310546875e+00 -1.060096502304077148e+00 -7.713119983673095703e-01 1.000000000000000000e+01
8.185205459594726562e+00 -1.089442610740661621e+00 -7.746927142143249512e-01 1.000000000000000000e+01
8.190694808959960938e+00 -1.115757226943969727e+00 -7.756146788597106934e-01 7.000000000000000000e+00
8.669309616088867188e+00 -1.262301206588745117e+00 -8.265300393104553223e-01 7.000000000000000000e+00
6.731987953186035156e+00 -1.001430153846740723e+00 -6.252250075340270996e-01 8.000000000000000000e+00
8.776466369628906250e+00 -1.332940459251403809e+00 -8.385161161422729492e-01 7.000000000000000000e+00
8.772336006164550781e+00 -1.359860062599182129e+00 -8.385161161422729492e-01 9.000000000000000000e+00
8.873816490173339844e+00 -1.431396245956420898e+00 -8.499900102615356445e-01 8.000000000000000000e+00
6.684944152832031250e+00 -1.120571851730346680e+00 -6.223565340042114258e-01 1.100000000000000000e+01
6.681862831115722656e+00 -1.162250280380249023e+00 -6.227663159370422363e-01 9.000000000000000000e+00
6.663573265075683594e+00 -1.180143475532531738e+00 -6.212295889854431152e-01 1.700000000000000000e+01
6.625657081604003906e+00 -1.194407343864440918e+00 -6.176440119743347168e-01 7.000000000000000000e+00
6.625048637390136719e+00 -1.236315965652465820e+00 -6.183611750602722168e-01 9.000000000000000000e+00
6.652498245239257812e+00 -1.262568593025207520e+00 -6.216393709182739258e-01 1.300000000000000000e+01
6.849044799804687500e+00 -1.387140035629272461e+00 -6.439724564552307129e-01 5.000000000000000000e+00
6.877406120300292969e+00 -1.436866641044616699e+00 -6.478654146194458008e-01 1.100000000000000000e+01
6.868100166320800781e+00 -1.456927776336669922e+00 -6.473531723022460938e-01 5.000000000000000000e+00
6.678249359130859375e+00 -1.697527170181274414e+00 -6.339328289031982422e-01 6.000000000000000000e+00
6.437802791595458984e+00 -1.720801353454589844e+00 -6.105753183364868164e-01 6.000000000000000000e+00
6.467705726623535156e+00 -1.792730927467346191e+00 -6.154927015304565430e-01 8.000000000000000000e+00
6.190318584442138672e+00 -2.390812397003173828e+00 -6.077068448066711426e-01 1.100000000000000000e+01
5.885575294494628906e+00 -2.897997140884399414e+00 -5.999209880828857422e-01 5.000000000000000000e+00
5.740799427032470703e+00 -3.162804603576660156e+00 -5.993063449859619141e-01 7.000000000000000000e+00
5.762382507324218750e+00 -3.197776317596435547e+00 -6.029943227767944336e-01 1.100000000000000000e+01
5.802464962005615234e+00 -3.266741275787353516e+00 -6.100630760192871094e-01 1.000000000000000000e+01
6.014152050018310547e+00 -3.483772993087768555e+00 -6.400795578956604004e-01 9.000000000000000000e+00
9.183982849121093750e+00 -6.100945949554443359e+00 -1.059798002243041992e+00 1.900000000000000000e+01
5.543376922607421875e+00 -3.806550264358520508e+00 -6.168244481086730957e-01 8.000000000000000000e+00
5.597492218017578125e+00 -3.894457101821899414e+00 -6.265567541122436523e-01 1.000000000000000000e+01
5.583281040191650391e+00 -3.987131118774414062e+00 -6.308594942092895508e-01 1.100000000000000000e+01
5.899647712707519531e+00 -4.267918586730957031e+00 -6.741938591003417969e-01 9.000000000000000000e+00
5.493270874023437500e+00 -3.999709129333496094e+00 -6.240980625152587891e-01 1.200000000000000000e+01
5.473752021789550781e+00 -4.011251926422119141e+00 -6.231760978698730469e-01 1.000000000000000000e+01
5.516661167144775391e+00 -4.068762779235839844e+00 -6.302447915077209473e-01 1.400000000000000000e+01
5.543292999267578125e+00 -4.114717483520507812e+00 -6.352646350860595703e-01 8.000000000000000000e+00
5.415083885192871094e+00 -4.045388698577880859e+00 -6.204100251197814941e-01 9.000000000000000000e+00
5.467847824096679688e+00 -4.110996246337890625e+00 -6.288105845451354980e-01 1.000000000000000000e+01
5.381433963775634766e+00 -4.071937084197998047e+00 -6.192831397056579590e-01 1.400000000000000000e+01
5.226455688476562500e+00 -3.979961156845092773e+00 -6.008430123329162598e-01 1.400000000000000000e+01
5.294759273529052734e+00 -4.057688713073730469e+00 -6.112924218177795410e-01 1.600000000000000000e+01
5.204299926757812500e+00 -4.013777256011962891e+00 -6.011503338813781738e-01 1.800000000000000000e+01
5.156597137451171875e+00 -4.002281665802001953e+00 -5.965402722358703613e-01 1.300000000000000000e+01
4.899675369262695312e+00 3.343838691711425781e+00 -5.707157254219055176e-01 9.000000000000000000e+00
4.907732009887695312e+00 3.305382251739501953e+00 -5.690905451774597168e-01 1.000000000000000000e+01
4.974861145019531250e+00 3.328451633453369141e+00 -5.765664577484130859e-01 8.000000000000000000e+00
4.998508930206298828e+00 3.300054550170898438e+00 -5.769998431205749512e-01 7.000000000000000000e+00
4.940442562103271484e+00 3.240001440048217773e+00 -5.681154131889343262e-01 1.100000000000000000e+01
4.918706417083740234e+00 3.204210519790649414e+00 -5.639982819557189941e-01 1.000000000000000000e+01
4.892624378204345703e+00 3.165883302688598633e+00 -5.593394041061401367e-01 1.300000000000000000e+01
4.883915901184082031e+00 3.139033794403076172e+00 -5.569557547569274902e-01 1.200000000000000000e+01
4.849950790405273438e+00 3.096220016479492188e+00 -5.513217449188232422e-01 1.000000000000000000e+01
4.809892177581787109e+00 3.049918413162231445e+00 -5.449293255805969238e-01 1.600000000000000000e+01
4.823432445526123047e+00 3.037796258926391602e+00 -5.454710125923156738e-01 1.900000000000000000e+01
4.783002853393554688e+00 2.991880893707275391e+00 -5.390785932540893555e-01 5.400000000000000000e+01
4.773581981658935547e+00 2.965651750564575195e+00 -5.366950035095214844e-01 7.700000000000000000e+01
4.750508308410644531e+00 2.931157112121582031e+00 -5.325778126716613770e-01 9.000000000000000000e+01
4.741678237915039062e+00 2.905661582946777344e+00 -5.303025245666503906e-01 1.070000000000000000e+02
4.742927074432373047e+00 2.886449575424194336e+00 -5.293274521827697754e-01 9.800000000000000000e+01
4.722833156585693359e+00 2.854402780532836914e+00 -5.256436467170715332e-01 7.700000000000000000e+01
4.727305889129638672e+00 2.837342023849487305e+00 -5.251019001007080078e-01 1.040000000000000000e+02
4.702684402465820312e+00 2.802976369857788086e+00 -5.208764076232910156e-01 1.050000000000000000e+02
4.693295955657958984e+00 2.777902603149414062e+00 -5.186011195182800293e-01 1.060000000000000000e+02
4.668371200561523438e+00 2.743846416473388672e+00 -5.143756270408630371e-01 1.060000000000000000e+02
4.642423629760742188e+00 2.709468126296997070e+00 -5.100417733192443848e-01 8.900000000000000000e+01
4.646413326263427734e+00 2.692720651626586914e+00 -5.095000267028808594e-01 9.400000000000000000e+01
4.609846591949462891e+00 2.652671575546264648e+00 -5.038660168647766113e-01 6.900000000000000000e+01
4.601562976837158203e+00 2.629146575927734375e+00 -5.018074512481689453e-01 8.800000000000000000e+01
4.590584754943847656e+00 2.604225873947143555e+00 -4.994238317012786865e-01 7.700000000000000000e+01
4.582095146179199219e+00 2.580860853195190430e+00 -4.973652660846710205e-01 9.300000000000000000e+01
4.570034980773925781e+00 2.555631875991821289e+00 -4.948732852935791016e-01 1.030000000000000000e+02
4.566555023193359375e+00 2.535326480865478516e+00 -4.934647679328918457e-01 9.800000000000000000e+01
4.558640480041503906e+00 2.512667417526245117e+00 -4.915145337581634521e-01 9.400000000000000000e+01
4.554118156433105469e+00 2.491989374160766602e+00 -4.899976849555969238e-01 9.500000000000000000e+01
4.523305416107177734e+00 2.457127809524536133e+00 -4.852304458618164062e-01 1.080000000000000000e+02
4.503696918487548828e+00 2.428612709045410156e+00 -4.818717241287231445e-01 1.020000000000000000e+02
4.485709190368652344e+00 2.401179313659667969e+00 -4.787296652793884277e-01 1.340000000000000000e+02
4.465840339660644531e+00 2.372946500778198242e+00 -4.753709435462951660e-01 1.120000000000000000e+02
4.466064453125000000e+00 2.355524539947509766e+00 -4.745041728019714355e-01 1.280000000000000000e+02
4.457417011260986328e+00 2.333513021469116211e+00 -4.725539386272430420e-01 1.100000000000000000e+02
4.452205181121826172e+00 2.313410043716430664e+00 -4.710370898246765137e-01 1.360000000000000000e+02
4.446028232574462891e+00 2.292905569076538086e+00 -4.694118797779083252e-01 1.470000000000000000e+02
4.431803226470947266e+00 2.268384456634521484e+00 -4.668115675449371338e-01 1.580000000000000000e+02
4.413924217224121094e+00 2.242171764373779297e+00 -4.637778699398040771e-01 1.420000000000000000e+02
4.420782566070556641e+00 2.228619337081909180e+00 -4.637778699398040771e-01 1.660000000000000000e+02
4.391146659851074219e+00 2.196811437606811523e+00 -4.593356847763061523e-01 1.430000000000000000e+02
4.380057334899902344e+00 2.174488782882690430e+00 -4.571687579154968262e-01 1.400000000000000000e+02
4.380465507507324219e+00 2.157965660095214844e+00 -4.564103186130523682e-01 1.870000000000000000e+02
4.379920005798339844e+00 2.141024112701416016e+00 -4.555435478687286377e-01 1.880000000000000000e+02
4.370367527008056641e+00 2.119767904281616211e+00 -4.535933136940002441e-01 1.810000000000000000e+02
4.366996765136718750e+00 2.101608276367187500e+00 -4.524015188217163086e-01 1.590000000000000000e+02
4.349201679229736328e+00 2.076636075973510742e+00 -4.494761526584625244e-01 2.010000000000000000e+02
4.344771385192871094e+00 2.058176517486572266e+00 -4.481759965419769287e-01 2.000000000000000000e+02
4.342068195343017578e+00 2.040609359741210938e+00 -4.470925331115722656e-01 2.030000000000000000e+02
4.332089900970458984e+00 2.019717693328857422e+00 -4.451422989368438721e-01 2.100000000000000000e+02
4.323829174041748047e+00 1.999741196632385254e+00 -4.434087574481964111e-01 2.100000000000000000e+02
4.310968875885009766e+00 1.977761983871459961e+00 -4.411334693431854248e-01 2.090000000000000000e+02
4.298919200897216797e+00 1.956292271614074707e+00 -4.389665424823760986e-01 2.630000000000000000e+02
4.278624057769775391e+00 1.931234598159790039e+00 -4.358245134353637695e-01 2.230000000000000000e+02
4.270010948181152344e+00 1.911600232124328613e+00 -4.340909719467163086e-01 2.430000000000000000e+02
4.254049301147460938e+00 1.888809919357299805e+00 -4.314906597137451172e-01 2.130000000000000000e+02
4.260734081268310547e+00 1.876150369644165039e+00 -4.315989911556243896e-01 2.380000000000000000e+02
4.247337818145751953e+00 1.854716062545776367e+00 -4.293237328529357910e-01 2.650000000000000000e+02
4.232025623321533203e+00 1.832591652870178223e+00 -4.268317520618438721e-01 2.620000000000000000e+02
4.231233596801757812e+00 1.816853880882263184e+00 -4.260733425617218018e-01 2.750000000000000000e+02
4.218494415283203125e+00 1.796076178550720215e+00 -4.239064157009124756e-01 2.840000000000000000e+02
4.214826107025146484e+00 1.779259681701660156e+00 -4.228229522705078125e-01 3.150000000000000000e+02
4.208343505859375000e+00 1.761331319808959961e+00 -4.214144349098205566e-01 3.060000000000000000e+02
4.200872421264648438e+00 1.743078589439392090e+00 -4.198975861072540283e-01 3.000000000000000000e+02
4.191490173339843750e+00 1.724131941795349121e+00 -4.181640446186065674e-01 2.970000000000000000e+02
4.178349018096923828e+00 1.703758120536804199e+00 -4.159971177577972412e-01 3.180000000000000000e+02
4.180791378021240234e+00 1.689813613891601562e+00 -4.156720936298370361e-01 3.290000000000000000e+02
4.183187484741210938e+00 1.675870180130004883e+00 -4.153470396995544434e-01 3.440000000000000000e+02
4.168906211853027344e+00 1.655325055122375488e+00 -4.130717813968658447e-01 3.110000000000000000e+02
4.161014080047607422e+00 1.637431263923645020e+00 -4.115549325942993164e-01 3.630000000000000000e+02
4.153977394104003906e+00 1.619962692260742188e+00 -4.101464152336120605e-01 3.390000000000000000e+02
4.155218601226806641e+00 1.605777621269226074e+00 -4.097130298614501953e-01 3.370000000000000000e+02
4.149913311004638672e+00 1.589111924171447754e+00 -4.085212349891662598e-01 3.570000000000000000e+02
4.135250091552734375e+00 1.568967700004577637e+00 -4.062459468841552734e-01 3.450000000000000000e+02
4.126085758209228516e+00 1.551027178764343262e+00 -4.046207666397094727e-01 3.530000000000000000e+02
4.116850852966308594e+00 1.533157587051391602e+00 -4.029955565929412842e-01 3.590000000000000000e+02
4.104746818542480469e+00 1.514327168464660645e+00 -4.010453224182128906e-01 3.860000000000000000e+02
4.098168373107910156e+00 1.497632741928100586e+00 -3.997451663017272949e-01 3.810000000000000000e+02
4.074700832366943359e+00 1.474903106689453125e+00 -3.964947760105133057e-01 3.550000000000000000e+02
4.070784091949462891e+00 1.459376215934753418e+00 -3.955196738243103027e-01 3.570000000000000000e+02
4.064937114715576172e+00 1.443221926689147949e+00 -3.943278491497039795e-01 3.620000000000000000e+02
4.053402423858642578e+00 1.425139188766479492e+00 -3.924859762191772461e-01 3.370000000000000000e+02
4.052122592926025391e+00 1.410735964775085449e+00 -3.918358981609344482e-01 3.650000000000000000e+02
4.055491447448730469e+00 1.397973656654357910e+00 -3.917275369167327881e-01 4.120000000000000000e+02
4.044707775115966797e+00 1.380388140678405762e+00 -3.899939954280853271e-01 3.750000000000000000e+02
4.038563728332519531e+00 1.364472866058349609e+00 -3.888022005558013916e-01 3.600000000000000000e+02
4.034245967864990234e+00 1.349238753318786621e+00 -3.878270685672760010e-01 3.660000000000000000e+02
4.027040958404541016e+00 1.333106994628906250e+00 -3.865269124507904053e-01 3.670000000000000000e+02
4.025443553924560547e+00 1.318889021873474121e+00 -3.858768343925476074e-01 3.520000000000000000e+02
4.020960330963134766e+00 1.303773641586303711e+00 -3.849017024040222168e-01 3.650000000000000000e+02
4.004116058349609375e+00 1.284750342369079590e+00 -3.825180828571319580e-01 3.830000000000000000e+02
3.991930961608886719e+00 1.267346739768981934e+00 -3.806762099266052246e-01 3.710000000000000000e+02
3.984419107437133789e+00 1.251519203186035156e+00 -3.793760538101196289e-01 3.460000000000000000e+02
3.962607622146606445e+00 1.231325507164001465e+00 -3.764506876468658447e-01 3.820000000000000000e+02
3.963515758514404297e+00 1.218286514282226562e+00 -3.761256635189056396e-01 3.920000000000000000e+02
3.956772327423095703e+00 1.202940464019775391e+00 -3.749338388442993164e-01 3.520000000000000000e+02
3.953780174255371094e+00 1.188792109489440918e+00 -3.741754293441772461e-01 3.740000000000000000e+02
3.943115234375000000e+00 1.172407269477844238e+00 -3.725502192974090576e-01 3.690000000000000000e+02
3.931433439254760742e+00 1.155818700790405273e+00 -3.708166778087615967e-01 3.860000000000000000e+02
3.930187702178955078e+00 1.142364621162414551e+00 -3.702749609947204590e-01 3.670000000000000000e+02
3.923163890838623047e+00 1.127282023429870605e+00 -3.690831363201141357e-01 3.620000000000000000e+02
3.911303043365478516e+00 1.110895514488220215e+00 -3.673495948314666748e-01 3.410000000000000000e+02
3.917564392089843750e+00 1.099696516990661621e+00 -3.676746487617492676e-01 3.700000000000000000e+02
3.907508373260498047e+00 1.083952665328979492e+00 -3.661577999591827393e-01 3.660000000000000000e+02
3.899310350418090820e+00 1.068806409835815430e+00 -3.648576438426971436e-01 3.560000000000000000e+02
3.899692296981811523e+00 1.056059002876281738e+00 -3.645325899124145508e-01 4.080000000000000000e+02
3.900032997131347656e+00 1.043319344520568848e+00 -3.642075657844543457e-01 3.890000000000000000e+02
3.920516014099121094e+00 1.035919904708862305e+00 -3.661577999591827393e-01 4.060000000000000000e+02
3.927523374557495117e+00 1.024891018867492676e+00 -3.665911853313446045e-01 3.810000000000000000e+02
3.943163871765136719e+00 1.016060948371887207e+00 -3.679996728897094727e-01 3.760000000000000000e+02
3.954933404922485352e+00 1.006164312362670898e+00 -3.689748048782348633e-01 3.720000000000000000e+02
3.968607664108276367e+00 9.966891407966613770e-01 -3.701665997505187988e-01 4.120000000000000000e+02
3.992875099182128906e+00 9.897701740264892578e-01 -3.725502192974090576e-01 3.920000000000000000e+02
4.009411811828613281e+00 9.808221459388732910e-01 -3.740670680999755859e-01 3.860000000000000000e+02
4.031729698181152344e+00 9.731813073158264160e-01 -3.762339949607849121e-01 3.880000000000000000e+02
4.044366836547851562e+00 9.631101489067077637e-01 -3.773174583911895752e-01 3.750000000000000000e+02
4.062787532806396484e+00 9.543342590332031250e-01 -3.790509998798370361e-01 3.770000000000000000e+02
4.080223083496093750e+00 9.452301263809204102e-01 -3.806762099266052246e-01 3.930000000000000000e+02
4.104425430297851562e+00 9.375773668289184570e-01 -3.830598294734954834e-01 3.760000000000000000e+02
4.115041255950927734e+00 9.267277121543884277e-01 -3.839266002178192139e-01 3.480000000000000000e+02
4.140186309814453125e+00 9.190526604652404785e-01 -3.864185512065887451e-01 3.850000000000000000e+02
4.164351940155029297e+00 9.110196232795715332e-01 -3.888022005558013916e-01 3.530000000000000000e+02
4.187535285949707031e+00 9.026374816894531250e-01 -3.910774588584899902e-01 3.910000000000000000e+02
4.201953887939453125e+00 8.922634720802307129e-01 -3.923776149749755859e-01 3.790000000000000000e+02
4.228024959564208984e+00 8.842511773109436035e-01 -3.949779272079467773e-01 3.890000000000000000e+02
4.242402553558349609e+00 8.736814260482788086e-01 -3.962780833244323730e-01 4.040000000000000000e+02
4.247011661529541016e+00 8.610567450523376465e-01 -3.964947760105133057e-01 3.360000000000000000e+02
4.264256477355957031e+00 8.509406447410583496e-01 -3.981199860572814941e-01 4.290000000000000000e+02
4.259043216705322266e+00 8.363220095634460449e-01 -3.972532153129577637e-01 3.540000000000000000e+02
4.288918972015380859e+00 8.285300731658935547e-01 -4.002869129180908203e-01 3.750000000000000000e+02
4.312927246093750000e+00 8.194494843482971191e-01 -4.026705324649810791e-01 3.950000000000000000e+02
4.341805458068847656e+00 8.111419677734375000e-01 -4.055958688259124756e-01 3.290000000000000000e+02
4.369695663452148438e+00 8.024854063987731934e-01 -4.084128737449645996e-01 3.490000000000000000e+02
4.401486396789550781e+00 7.943714261054992676e-01 -4.116632640361785889e-01 3.260000000000000000e+02
4.419564723968505859e+00 7.836405634880065918e-01 -4.133968055248260498e-01 3.850000000000000000e+02
4.435659408569335938e+00 7.724651098251342773e-01 -4.149136543273925781e-01 3.310000000000000000e+02
4.460546016693115234e+00 7.627059817314147949e-01 -4.174056351184844971e-01 3.130000000000000000e+02
4.482472896575927734e+00 7.523077726364135742e-01 -4.195725619792938232e-01 3.310000000000000000e+02
4.497511863708496094e+00 7.406517267227172852e-01 -4.209810495376586914e-01 3.200000000000000000e+02
4.512520790100097656e+00 7.289104461669921875e-01 -4.223895668983459473e-01 2.830000000000000000e+02
4.538300991058349609e+00 7.187942862510681152e-01 -4.249898791313171387e-01 3.210000000000000000e+02
4.558167457580566406e+00 7.076119780540466309e-01 -4.269401133060455322e-01 3.230000000000000000e+02
4.583904266357421875e+00 6.972112059593200684e-01 -4.295404255390167236e-01 2.660000000000000000e+02
4.605687141418457031e+00 6.860734224319458008e-01 -4.317073523998260498e-01 2.560000000000000000e+02
4.610721588134765625e+00 6.723703742027282715e-01 -4.320323765277862549e-01 2.600000000000000000e+02
4.625556468963623047e+00 6.600469350814819336e-01 -4.334408938884735107e-01 2.440000000000000000e+02
4.652173995971679688e+00 6.492872834205627441e-01 -4.361495375633239746e-01 2.480000000000000000e+02
4.681724071502685547e+00 6.387735605239868164e-01 -4.391832351684570312e-01 2.470000000000000000e+02
4.707311153411865234e+00 6.275593042373657227e-01 -4.417835772037506104e-01 2.340000000000000000e+02
4.729916095733642578e+00 6.158090829849243164e-01 -4.440588355064392090e-01 2.120000000000000000e+02
4.746575832366943359e+00 6.031742691993713379e-01 -4.456840455532073975e-01 1.990000000000000000e+02
4.775041580200195312e+00 5.919101834297180176e-01 -4.486093819141387939e-01 1.940000000000000000e+02
4.791638851165771484e+00 5.790463089942932129e-01 -4.502345919609069824e-01 1.930000000000000000e+02
4.821037292480468750e+00 5.675967335700988770e-01 -4.532682895660400391e-01 1.750000000000000000e+02
4.834607601165771484e+00 5.541614294052124023e-01 -4.545684456825256348e-01 1.740000000000000000e+02
4.866912841796875000e+00 5.427409410476684570e-01 -4.579271674156188965e-01 1.730000000000000000e+02
4.908088207244873047e+00 5.320914387702941895e-01 -4.622610211372375488e-01 1.520000000000000000e+02
4.930459022521972656e+00 5.192168354988098145e-01 -4.645363092422485352e-01 1.320000000000000000e+02
4.967631816864013672e+00 5.077255964279174805e-01 -4.684367775917053223e-01 1.440000000000000000e+02
4.989940643310546875e+00 4.945409893989562988e-01 -4.707120358943939209e-01 1.340000000000000000e+02
5.002319335937500000e+00 4.802744984626770020e-01 -4.719038605690002441e-01 1.390000000000000000e+02
5.043363571166992188e+00 4.686029553413391113e-01 -4.762377142906188965e-01 1.230000000000000000e+02
5.053688526153564453e+00 4.539280533790588379e-01 -4.772128164768218994e-01 1.000000000000000000e+02
5.082788467407226562e+00 4.408256113529205322e-01 -4.802465140819549561e-01 1.140000000000000000e+02
5.105911731719970703e+00 4.270519316196441650e-01 -4.826301336288452148e-01 1.020000000000000000e+02
5.135933876037597656e+00 4.136990308761596680e-01 -4.857721924781799316e-01 9.400000000000000000e+01
5.157001972198486328e+00 3.994751572608947754e-01 -4.879391193389892578e-01 9.900000000000000000e+01
5.222642898559570312e+00 3.884426355361938477e-01 -4.949816167354583740e-01 9.600000000000000000e+01
5.243641853332519531e+00 3.738312125205993652e-01 -4.971485733985900879e-01 9.200000000000000000e+01
5.299313545227050781e+00 3.614613115787506104e-01 -5.031076073646545410e-01 9.800000000000000000e+01
5.322222232818603516e+00 3.466222286224365234e-01 -5.054912567138671875e-01 9.200000000000000000e+01
5.338143348693847656e+00 3.312152624130249023e-01 -5.071164369583129883e-01 7.500000000000000000e+01
5.371883392333984375e+00 3.167666494846343994e-01 -5.106918811798095703e-01 9.500000000000000000e+01
5.386725902557373047e+00 3.010606765747070312e-01 -5.122087001800537109e-01 7.200000000000000000e+01
5.415420532226562500e+00 2.860001623630523682e-01 -5.152423977851867676e-01 1.010000000000000000e+02
5.465917110443115234e+00 2.718521952629089355e-01 -5.206597447395324707e-01 7.900000000000000000e+01
5.483606815338134766e+00 2.558689415454864502e-01 -5.225015878677368164e-01 8.400000000000000000e+01
5.514161109924316406e+00 2.403420507907867432e-01 -5.257520079612731934e-01 9.300000000000000000e+01
5.523812294006347656e+00 2.237856239080429077e-01 -5.267271399497985840e-01 4.600000000000000000e+01
5.576130867004394531e+00 2.087703198194503784e-01 -5.323611497879028320e-01 2.000000000000000000e+01
5.666162490844726562e+00 1.947325319051742554e-01 -5.421122908592224121e-01 1.000000000000000000e+01
5.642886161804199219e+00 1.766024231910705566e-01 -5.395119786262512207e-01 4.000000000000000000e+00
5.762125492095947266e+00 1.449465900659561157e-01 -5.524052381515502930e-01 7.000000000000000000e+00
5.783350944519042969e+00 7.448101043701171875e-02 -5.545721650123596191e-01 5.000000000000000000e+00
6.115725517272949219e+00 4.122291505336761475e-02 -5.907598137855529785e-01 6.000000000000000000e+00
6.118845939636230469e+00 3.698476823046803474e-03 -5.910848379135131836e-01 5.000000000000000000e+00
5.966656208038330078e+00 -3.300079330801963806e-02 -5.745078921318054199e-01 1.100000000000000000e+01
6.268958568572998047e+00 -1.116240993142127991e-01 -6.075535416603088379e-01 1.000000000000000000e+01
6.343128681182861328e+00 -1.324144452810287476e-01 -6.156795024871826172e-01 7.000000000000000000e+00
6.359527111053466797e+00 -1.913279891014099121e-01 -6.176297068595886230e-01 2.600000000000000000e+01
6.385736465454101562e+00 -2.117279917001724243e-01 -6.205551028251647949e-01 1.700000000000000000e+01
6.408899784088134766e+00 -2.321825474500656128e-01 -6.231554150581359863e-01 1.300000000000000000e+01
6.324716567993164062e+00 -2.485623061656951904e-01 -6.140543222427368164e-01 9.000000000000000000e+00
6.396429061889648438e+00 -2.710392177104949951e-01 -6.219635605812072754e-01 8.000000000000000000e+00
6.478986740112304688e+00 -2.944552004337310791e-01 -6.310646533966064453e-01 1.200000000000000000e+01
6.399610519409179688e+00 -3.105228841304779053e-01 -6.225053071975708008e-01 1.000000000000000000e+01
6.340053081512451172e+00 -3.271313607692718506e-01 -6.161128878593444824e-01 1.000000000000000000e+01
6.495854854583740234e+00 -3.551596701145172119e-01 -6.332315802574157715e-01 1.500000000000000000e+01
6.509621620178222656e+00 -3.759471178054809570e-01 -6.348568201065063477e-01 1.900000000000000000e+01
6.548128604888916016e+00 -3.983320295810699463e-01 -6.391906738281250000e-01 1.700000000000000000e+01
6.618306159973144531e+00 -4.229865074157714844e-01 -6.469916105270385742e-01 1.600000000000000000e+01
6.699304103851318359e+00 -4.488064944744110107e-01 -6.559843420982360840e-01 1.900000000000000000e+01
6.688970565795898438e+00 -4.687319099903106689e-01 -6.550092101097106934e-01 1.000000000000000000e+01
6.685517787933349609e+00 -4.891060590744018555e-01 -6.547925472259521484e-01 1.500000000000000000e+01
6.783109664916992188e+00 -5.171746015548706055e-01 -6.656271815299987793e-01 1.300000000000000000e+01
6.708157062530517578e+00 -5.321630835533142090e-01 -6.576095223426818848e-01 1.300000000000000000e+01
6.678751945495605469e+00 -5.504538416862487793e-01 -6.545758247375488281e-01 1.300000000000000000e+01
6.621563911437988281e+00 -5.661970973014831543e-01 -6.485084295272827148e-01 1.200000000000000000e+01
6.500967502593994141e+00 -5.759781002998352051e-01 -6.355068683624267578e-01 9.000000000000000000e+00
6.561537265777587891e+00 -6.016402244567871094e-01 -6.423326730728149414e-01 6.000000000000000000e+00
7.356348991394042969e+00 -6.973028779029846191e-01 -7.295515537261962891e-01 6.000000000000000000e+00
7.461350440979003906e+00 -7.766112685203552246e-01 -7.417946457862854004e-01 1.500000000000000000e+01
7.744975566864013672e+00 -8.542072772979736328e-01 -7.734318375587463379e-01 1.000000000000000000e+01
7.901627063751220703e+00 -9.451752901077270508e-01 -7.915256619453430176e-01 1.700000000000000000e+01
7.078736305236816406e+00 -8.687622547149658203e-01 -7.014898061752319336e-01 1.400000000000000000e+01
8.072232246398925781e+00 -1.015863180160522461e+00 -8.109196424484252930e-01 1.600000000000000000e+01
7.001452445983886719e+00 -9.247627258300781250e-01 -6.939055919647216797e-01 1.200000000000000000e+01
8.392982482910156250e+00 -1.161031007766723633e+00 -8.476490974426269531e-01 8.000000000000000000e+00
8.451393127441406250e+00 -1.195548295974731445e+00 -8.544749021530151367e-01 9.000000000000000000e+00
6.373193740844726562e+00 -1.142213344573974609e+00 -6.298728585243225098e-01 9.000000000000000000e+00
6.338697433471679688e+00 -1.176217913627624512e+00 -6.268391609191894531e-01 9.000000000000000000e+00
6.151189327239990234e+00 -1.219686985015869141e+00 -6.076618432998657227e-01 8.000000000000000000e+00
6.225399017333984375e+00 -1.274153113365173340e+00 -6.167629361152648926e-01 1.300000000000000000e+01
6.217741489410400391e+00 -1.372281432151794434e+00 -6.181714534759521484e-01 7.000000000000000000e+00
6.246485233306884766e+00 -1.398737311363220215e+00 -6.218552589416503906e-01 1.100000000000000000e+01
6.207754135131835938e+00 -1.430119514465332031e+00 -6.184964776039123535e-01 1.100000000000000000e+01
6.235621452331542969e+00 -1.476889848709106445e+00 -6.226136684417724609e-01 7.000000000000000000e+00
6.193773746490478516e+00 -1.527315497398376465e+00 -6.194716095924377441e-01 1.100000000000000000e+01
6.017385005950927734e+00 -1.503413915634155273e+00 -6.001859307289123535e-01 1.000000000000000000e+01
6.075385570526123047e+00 -1.537724733352661133e+00 -6.072284579277038574e-01 7.000000000000000000e+00
6.197750568389892578e+00 -1.588948011398315430e+00 -6.215301752090454102e-01 8.000000000000000000e+00
6.114003658294677734e+00 -2.057382583618164062e+00 -6.272725462913513184e-01 7.000000000000000000e+00
6.085481166839599609e+00 -2.131269931793212891e+00 -6.269475221633911133e-01 1.100000000000000000e+01
6.065701007843017578e+00 -2.356992959976196289e+00 -6.334483027458190918e-01 7.000000000000000000e+00
6.094570159912109375e+00 -2.411357879638671875e+00 -6.385405659675598145e-01 1.000000000000000000e+01
6.111148357391357422e+00 -2.439627885818481445e+00 -6.413576006889343262e-01 4.000000000000000000e+00
5.776557922363281250e+00 -2.727844715118408203e+00 -6.204467415809631348e-01 6.000000000000000000e+00
5.763673782348632812e+00 -2.743417739868164062e+00 -6.199049949645996094e-01 1.000000000000000000e+01
5.764685630798339844e+00 -2.875223159790039062e+00 -6.262974143028259277e-01 1.800000000000000000e+01
5.596461772918701172e+00 -3.234250783920288086e+00 -6.286810636520385742e-01 1.000000000000000000e+01
5.474315643310546875e+00 -3.253919839859008789e+00 -6.182798147201538086e-01 1.200000000000000000e+01
5.475536823272705078e+00 -3.346255302429199219e+00 -6.235888004302978516e-01 6.000000000000000000e+00
5.449567317962646484e+00 -3.399666309356689453e+00 -6.242388486862182617e-01 8.000000000000000000e+00
5.384393692016601562e+00 -3.381998538970947266e+00 -6.171963214874267578e-01 8.000000000000000000e+00
9.974859237670898438e+00 -6.308242797851562500e+00 -1.210501074790954590e+00 1.700000000000000000e+01
9.994870185852050781e+00 -6.363910675048828125e+00 -1.215593338012695312e+00 3.200000000000000000e+01
9.644082069396972656e+00 -6.224043846130371094e+00 -1.175180196762084961e+00 2.700000000000000000e+01
9.328674316406250000e+00 -6.101887226104736328e+00 -1.139100790023803711e+00 1.000000000000000000e+01
9.174228668212890625e+00 -6.081563472747802734e+00 -1.123824000358581543e+00 6.200000000000000000e+01
8.264962196350097656e+00 -5.515368938446044922e+00 -1.007134914398193359e+00 1.000000000000000000e+01
6.603886127471923828e+00 -4.705907821655273438e+00 -8.079943060874938965e-01 1.000000000000000000e+01
5.394142627716064453e+00 -3.944509267807006836e+00 -6.525172591209411621e-01 1.300000000000000000e+01
5.351465225219726562e+00 -3.963922977447509766e+00 -6.500253081321716309e-01 1.100000000000000000e+01
5.331308841705322266e+00 -3.974380731582641602e+00 -6.489418148994445801e-01 1.500000000000000000e+01
5.281717300415039062e+00 -3.962677001953125000e+00 -6.438495516777038574e-01 1.200000000000000000e+01
5.198134422302246094e+00 -3.924947261810302734e+00 -6.340983510017395020e-01 1.900000000000000000e+01
5.254928588867187500e+00 -3.993206024169921875e+00 -6.435245275497436523e-01 1.600000000000000000e+01
5.218963623046875000e+00 -3.991191625595092773e+00 -6.402741074562072754e-01 1.200000000000000000e+01
5.130278110504150391e+00 -3.948369979858398438e+00 -6.297644972801208496e-01 9.000000000000000000e+00
5.137002944946289062e+00 -3.978700876235961914e+00 -6.323648095130920410e-01 9.000000000000000000e+00
5.074592113494873047e+00 -3.955328226089477539e+00 -6.254306435585021973e-01 1.900000000000000000e+01
4.994383811950683594e+00 -3.917498588562011719e+00 -6.160045266151428223e-01 1.600000000000000000e+01
4.921478748321533203e+00 -3.884757995605468750e+00 -6.075535416603088379e-01 2.200000000000000000e+01
4.829361915588378906e+00 -3.836148977279663086e+00 -5.963938236236572266e-01 2.500000000000000000e+01
4.772533416748046875e+00 -3.814944744110107422e+00 -5.901097655296325684e-01 1.900000000000000000e+01
4.657785892486572266e+00 -3.746694803237915039e+00 -5.756996870040893555e-01 8.000000000000000000e+00
4.600681304931640625e+00 -3.724063396453857422e+00 -5.693072676658630371e-01 2.200000000000000000e+01
4.509846687316894531e+00 -3.673491716384887695e+00 -5.581475496292114258e-01 3.200000000000000000e+01
4.450119495391845703e+00 -3.647607088088989258e+00 -5.513217449188232422e-01 4.600000000000000000e+01
4.386759281158447266e+00 -3.618227958679199219e+00 -5.439541935920715332e-01 3.300000000000000000e+01
4.338921070098876953e+00 -3.601192951202392578e+00 -5.387535691261291504e-01 4.100000000000000000e+01
4.262235164642333984e+00 -3.559683084487915039e+00 -5.294357538223266602e-01 4.300000000000000000e+01
4.191172599792480469e+00 -3.522214174270629883e+00 -5.208764076232910156e-01 3.500000000000000000e+01
4.132525444030761719e+00 -3.494614124298095703e+00 -5.140506029129028320e-01 3.900000000000000000e+01
4.104371547698974609e+00 -3.492458105087280273e+00 -5.115586519241333008e-01 3.000000000000000000e+01
4.040024280548095703e+00 -3.459126472473144531e+00 -5.038660168647766113e-01 4.400000000000000000e+01
5.056813716888427734e+00 3.819713592529296875e+00 -6.528918147087097168e-01 1.800000000000000000e+01
5.086781978607177734e+00 3.817898988723754883e+00 -6.555194258689880371e-01 2.000000000000000000e+01
5.077766895294189453e+00 3.786831617355346680e+00 -6.525490880012512207e-01 2.200000000000000000e+01
5.088562488555908203e+00 3.770643949508666992e+00 -6.524348258972167969e-01 2.400000000000000000e+01
5.121705532073974609e+00 3.770919799804687500e+00 -6.555194258689880371e-01 1.700000000000000000e+01
5.100378513336181641e+00 3.731137514114379883e+00 -6.508354544639587402e-01 1.900000000000000000e+01
5.107069015502929688e+00 3.688138008117675781e+00 -6.485505700111389160e-01 1.600000000000000000e+01
5.084460735321044922e+00 3.648125410079956055e+00 -6.437523365020751953e-01 1.500000000000000000e+01
5.096437931060791016e+00 3.633085966110229492e+00 -6.438665986061096191e-01 1.700000000000000000e+01
5.097832202911376953e+00 3.610542297363281250e+00 -6.424956321716308594e-01 1.600000000000000000e+01
5.098323822021484375e+00 3.587452411651611328e+00 -6.410104632377624512e-01 3.400000000000000000e+01
5.109305858612060547e+00 3.571794033050537109e+00 -6.410104632377624512e-01 1.300000000000000000e+01
5.011748313903808594e+00 3.457994461059570312e+00 -6.243309378623962402e-01 6.000000000000000000e+00
4.902317047119140625e+00 3.338259696960449219e+00 -6.061661839485168457e-01 1.100000000000000000e+01
5.006336212158203125e+00 3.386669158935546875e+00 -6.191899776458740234e-01 8.000000000000000000e+00
4.925181388854980469e+00 3.309779167175292969e+00 -6.065089106559753418e-01 8.000000000000000000e+00
4.870027542114257812e+00 3.101973295211791992e+00 -5.881156921386718750e-01 7.000000000000000000e+00
4.916911125183105469e+00 3.068592309951782227e+00 -5.906290411949157715e-01 8.000000000000000000e+00
4.783051013946533203e+00 2.884040832519531250e+00 -5.664094090461730957e-01 1.000000000000000000e+01
4.670872211456298828e+00 2.777447938919067383e+00 -5.490443706512451172e-01 1.300000000000000000e+01
4.521578788757324219e+00 2.651234626770019531e+00 -5.268810987472534180e-01 8.000000000000000000e+00
4.611247062683105469e+00 2.684845685958862305e+00 -5.377342700958251953e-01 1.300000000000000000e+01
4.616882324218750000e+00 2.669193983078002930e+00 -5.373915433883666992e-01 1.800000000000000000e+01
4.628495693206787109e+00 2.656995534896850586e+00 -5.378484725952148438e-01 2.700000000000000000e+01
4.554636001586914062e+00 2.596040487289428711e+00 -5.269953608512878418e-01 5.600000000000000000e+01
4.596296787261962891e+00 2.601140499114990234e+00 -5.314508676528930664e-01 1.040000000000000000e+02
4.573077201843261719e+00 2.569504976272583008e+00 -5.273380875587463379e-01 9.300000000000000000e+01
4.574866294860839844e+00 2.552074432373046875e+00 -5.265383720397949219e-01 1.240000000000000000e+02
4.560079574584960938e+00 2.525510549545288086e+00 -5.235680341720581055e-01 9.700000000000000000e+01
4.517317771911621094e+00 2.483741998672485352e+00 -5.169419050216674805e-01 9.300000000000000000e+01
4.512708663940429688e+00 2.463206529617309570e+00 -5.153424739837646484e-01 1.010000000000000000e+02
4.523738384246826172e+00 2.451243638992309570e+00 -5.157994627952575684e-01 1.020000000000000000e+02
4.497117519378662109e+00 2.418996095657348633e+00 -5.113439559936523438e-01 1.290000000000000000e+02
4.503641605377197266e+00 2.404719829559326172e+00 -5.112297534942626953e-01 1.060000000000000000e+02
4.491687774658203125e+00 2.380654335021972656e+00 -5.087163448333740234e-01 1.090000000000000000e+02
4.486661911010742188e+00 2.360386133193969727e+00 -5.071169734001159668e-01 1.250000000000000000e+02
4.470987319946289062e+00 2.334651947021484375e+00 -5.041466355323791504e-01 1.150000000000000000e+02
4.493122577667236328e+00 2.328696966171264648e+00 -5.060887932777404785e-01 1.430000000000000000e+02
4.453426837921142578e+00 2.290812015533447266e+00 -5.000338554382324219e-01 1.280000000000000000e+02
4.441853523254394531e+00 2.267650365829467773e+00 -4.976347386837005615e-01 1.390000000000000000e+02
4.406254291534423828e+00 2.232455968856811523e+00 -4.921510517597198486e-01 1.390000000000000000e+02
4.405095100402832031e+00 2.214910030364990234e+00 -4.911228418350219727e-01 1.390000000000000000e+02
4.387869358062744141e+00 2.189406633377075195e+00 -4.880382716655731201e-01 1.370000000000000000e+02
4.398126602172851562e+00 2.177698135375976562e+00 -4.884952604770660400e-01 1.780000000000000000e+02
4.394087791442871094e+00 2.158936500549316406e+00 -4.871243238449096680e-01 1.540000000000000000e+02
4.367651939392089844e+00 2.129333972930908203e+00 -4.828973114490509033e-01 1.770000000000000000e+02
4.353596210479736328e+00 2.105972051620483398e+00 -4.802697002887725830e-01 1.830000000000000000e+02
4.342124938964843750e+00 2.084006547927856445e+00 -4.779848456382751465e-01 1.680000000000000000e+02
4.331456661224365234e+00 2.062558412551879883e+00 -4.758141934871673584e-01 1.910000000000000000e+02
