# .PCD v.7 - Point Cloud Data file format
VERSION .7
FIELDS x y z intensity
SIZE 4 4 4 4
TYPE F F F F
COUNT 1 1 1 1
WIDTH 475
HEIGHT 1
VIEWPOINT 0 0 0 1 0 0 0
POINTS 475
DATA ascii
4.194716453552246094e+00 3.106166422367095947e-01 5.490005612373352051e-01 2.580000000000000000e+02
4.175826549530029297e+00 2.963415980339050293e-01 5.467503666877746582e-01 2.330000000000000000e+02
4.176715850830078125e+00 2.835289537906646729e-01 5.467503666877746582e-01 2.540000000000000000e+02
4.166658878326416016e+00 2.700081467628479004e-01 5.455127358436584473e-01 2.560000000000000000e+02
4.160525321960449219e+00 2.567960917949676514e-01 5.447251796722412109e-01 2.330000000000000000e+02
4.160301685333251953e+00 2.439725100994110107e-01 5.446126461029052734e-01 2.420000000000000000e+02
4.139203548431396484e+00 2.299975752830505371e-01 5.421374440193176270e-01 2.570000000000000000e+02
4.134928226470947266e+00 2.170377820730209351e-01 5.415748953819274902e-01 2.760000000000000000e+02
4.133589744567871094e+00 2.042531371116638184e-01 5.413498878479003906e-01 2.270000000000000000e+02
4.107397079467773438e+00 1.903319209814071655e-01 5.383121371269226074e-01 2.470000000000000000e+02
4.048398017883300781e+00 1.751600205898284912e-01 5.315615534782409668e-01 2.350000000000000000e+02
4.042959213256835938e+00 1.625002026557922363e-01 5.308864712715148926e-01 2.320000000000000000e+02
4.040459632873535156e+00 1.499855965375900269e-01 5.305489897727966309e-01 2.230000000000000000e+02
4.036928653717041016e+00 1.374541819095611572e-01 5.300989151000976562e-01 2.490000000000000000e+02
4.032365322113037109e+00 1.249151974916458130e-01 5.295363664627075195e-01 2.460000000000000000e+02
4.018824100494384766e+00 1.121571511030197144e-01 5.279612541198730469e-01 2.320000000000000000e+02
4.015175819396972656e+00 9.972885996103286743e-02 5.275112390518188477e-01 2.630000000000000000e+02
4.013475894927978516e+00 8.736699819564819336e-02 5.272861719131469727e-01 2.630000000000000000e+02
4.011738300323486328e+00 7.501651346683502197e-02 5.270611643791198730e-01 2.470000000000000000e+02
4.005988121032714844e+00 6.261589378118515015e-02 5.263861417770385742e-01 2.200000000000000000e+02
4.031000614166259766e+00 5.063430592417716980e-02 5.291988849639892578e-01 2.710000000000000000e+02
4.031136989593505859e+00 3.826713189482688904e-02 5.291988849639892578e-01 2.070000000000000000e+02
4.061044692993164062e+00 2.608738280832767487e-02 5.325741171836853027e-01 2.710000000000000000e+02
4.061105251312255859e+00 1.362815126776695251e-02 5.325741171836853027e-01 2.450000000000000000e+02
4.072058200836181641e+00 1.170579693280160427e-03 5.338117480278015137e-01 2.540000000000000000e+02
4.080985546112060547e+00 -1.134829781949520111e-02 5.348243117332458496e-01 2.140000000000000000e+02
4.093848705291748047e+00 -2.394567802548408508e-02 5.362869501113891602e-01 2.380000000000000000e+02
4.106672763824462891e+00 -3.662209212779998779e-02 5.377495884895324707e-01 2.170000000000000000e+02
4.138335704803466797e+00 -4.960601031780242920e-02 5.413498878479003906e-01 2.200000000000000000e+02
4.166976451873779297e+00 -6.273930519819259644e-02 5.446126461029052734e-01 2.170000000000000000e+02
4.186634063720703125e+00 -7.588566094636917114e-02 5.468628406524658203e-01 2.370000000000000000e+02
4.214197635650634766e+00 -8.932262659072875977e-02 5.500131249427795410e-01 2.390000000000000000e+02
4.211916923522949219e+00 -1.022027358412742615e-01 5.497881174087524414e-01 2.280000000000000000e+02
4.225489616394042969e+00 -1.155060157179832458e-01 5.513632297515869141e-01 2.090000000000000000e+02
4.232067584991455078e+00 -1.286813169717788696e-01 5.521507859230041504e-01 2.100000000000000000e+02
4.249528408050537109e+00 -1.422650665044784546e-01 5.541759729385375977e-01 2.030000000000000000e+02
4.263967037200927734e+00 -1.558479368686676025e-01 5.558636188507080078e-01 2.070000000000000000e+02
4.278361797332763672e+00 -1.695207357406616211e-01 5.575512647628784180e-01 2.280000000000000000e+02
4.294698238372802734e+00 -1.833683103322982788e-01 5.594639182090759277e-01 2.420000000000000000e+02
4.314960002899169922e+00 -1.974999159574508667e-01 5.618266463279724121e-01 2.400000000000000000e+02
4.323266029357910156e+00 -2.111744433641433716e-01 5.628392100334167480e-01 2.120000000000000000e+02
4.344428539276123047e+00 -2.255730926990509033e-01 5.653144121170043945e-01 2.200000000000000000e+02
4.369511604309082031e+00 -2.403222918510437012e-01 5.682396888732910156e-01 2.090000000000000000e+02
4.375697612762451172e+00 -2.541307210922241211e-01 5.690272450447082520e-01 2.190000000000000000e+02
4.407626628875732422e+00 -2.695593535900115967e-01 5.727400779724121094e-01 2.190000000000000000e+02
4.410745143890380859e+00 -2.833357453346252441e-01 5.731900930404663086e-01 1.830000000000000000e+02
4.437614440917968750e+00 -2.987382709980010986e-01 5.763403773307800293e-01 2.010000000000000000e+02
4.442624092102050781e+00 -3.127706348896026611e-01 5.770153999328613281e-01 2.080000000000000000e+02
4.450562477111816406e+00 -3.270553648471832275e-01 5.780280232429504395e-01 1.790000000000000000e+02
4.463408470153808594e+00 -3.417716324329376221e-01 5.796031355857849121e-01 1.780000000000000000e+02
4.505920886993408203e+00 -3.589401841163635254e-01 5.845535397529602051e-01 1.640000000000000000e+02
4.516681671142578125e+00 -3.737471103668212891e-01 5.859036445617675781e-01 1.620000000000000000e+02
4.526403903961181641e+00 -3.885383307933807373e-01 5.871412754058837891e-01 1.630000000000000000e+02
4.545974731445312500e+00 -4.042739868164062500e-01 5.895039439201354980e-01 1.660000000000000000e+02
4.564502239227294922e+00 -4.200422167778015137e-01 5.917541384696960449e-01 1.320000000000000000e+02
4.602759361267089844e+00 -4.378118813037872314e-01 5.962545275688171387e-01 1.690000000000000000e+02
4.624138832092285156e+00 -4.541672468185424805e-01 5.988422632217407227e-01 1.400000000000000000e+02
4.635575294494628906e+00 -4.696552157402038574e-01 6.003049015998840332e-01 1.360000000000000000e+02
4.679572582244873047e+00 -4.886265099048614502e-01 6.054803133010864258e-01 1.430000000000000000e+02
4.695834636688232422e+00 -5.048948526382446289e-01 6.075055003166198730e-01 1.180000000000000000e+02
4.709077835083007812e+00 -5.209395289421081543e-01 6.091931462287902832e-01 1.460000000000000000e+02
4.729177474975585938e+00 -5.378569364547729492e-01 6.116683483123779297e-01 1.410000000000000000e+02
4.771916389465332031e+00 -5.575571060180664062e-01 6.167312860488891602e-01 8.500000000000000000e+01
4.785968780517578125e+00 -5.740896463394165039e-01 6.185314059257507324e-01 1.070000000000000000e+02
4.808839797973632812e+00 -5.918068885803222656e-01 6.213441491127014160e-01 1.180000000000000000e+02
4.815874099731445312e+00 -6.076779365539550781e-01 6.223567724227905273e-01 9.800000000000000000e+01
4.826797485351562500e+00 -6.241077184677124023e-01 6.238194108009338379e-01 9.200000000000000000e+01
4.829785346984863281e+00 -6.395658850669860840e-01 6.243818998336791992e-01 7.300000000000000000e+01
4.836662292480468750e+00 -6.555825471878051758e-01 6.253945231437683105e-01 8.500000000000000000e+01
4.841517448425292969e+00 -6.713742613792419434e-01 6.261820793151855469e-01 7.200000000000000000e+01
4.867965221405029297e+00 -6.902731657028198242e-01 6.294448375701904297e-01 7.800000000000000000e+01
4.915976047515869141e+00 -7.124783396720886230e-01 6.351828575134277344e-01 8.100000000000000000e+01
4.924579143524169922e+00 -7.291589975357055664e-01 6.364204287528991699e-01 4.900000000000000000e+01
4.955722808837890625e+00 -7.493181824684143066e-01 6.402457952499389648e-01 6.500000000000000000e+01
4.962238788604736328e+00 -7.658835649490356445e-01 6.412583589553833008e-01 5.900000000000000000e+01
5.059000968933105469e+00 -7.967264056205749512e-01 6.526218056678771973e-01 5.900000000000000000e+01
5.080078125000000000e+00 -8.160279989242553711e-01 6.553220748901367188e-01 6.300000000000000000e+01
5.058919906616210938e+00 -8.285563588142395020e-01 6.531843543052673340e-01 5.000000000000000000e+01
5.110258102416992188e+00 -8.530768156051635742e-01 6.593723893165588379e-01 5.200000000000000000e+01
5.096841335296630859e+00 -8.669170141220092773e-01 6.581348180770874023e-01 3.900000000000000000e+01
5.145068645477294922e+00 -8.913750648498535156e-01 6.639853119850158691e-01 4.600000000000000000e+01
5.162858486175537109e+00 -9.107828140258789062e-01 6.663479804992675781e-01 4.500000000000000000e+01
5.177643775939941406e+00 -9.297809600830078125e-01 6.683731675148010254e-01 4.400000000000000000e+01
5.184541225433349609e+00 -9.474485516548156738e-01 6.694982647895812988e-01 6.000000000000000000e+01
5.222640037536621094e+00 -9.709821939468383789e-01 6.742236614227294922e-01 4.200000000000000000e+01
5.234281063079833984e+00 -9.897711873054504395e-01 6.759113073348999023e-01 4.600000000000000000e+01
5.269274711608886719e+00 -1.013145685195922852e+00 6.802991628646850586e-01 4.600000000000000000e+01
5.293446540832519531e+00 -1.034646511077880859e+00 6.834494471549987793e-01 5.400000000000000000e+01
5.338002204895019531e+00 -1.060372591018676758e+00 6.889623999595642090e-01 4.100000000000000000e+01
5.366865634918212891e+00 -1.083234786987304688e+00 6.926752328872680664e-01 4.400000000000000000e+01
5.397585391998291016e+00 -1.106683492660522461e+00 6.966130733489990234e-01 4.400000000000000000e+01
5.442803382873535156e+00 -1.133370518684387207e+00 7.022385597229003906e-01 3.200000000000000000e+01
5.447077751159667969e+00 -1.151708483695983887e+00 7.031385898590087891e-01 3.600000000000000000e+01
5.478492736816406250e+00 -1.175924777984619141e+00 7.071889638900756836e-01 3.600000000000000000e+01
5.528256416320800781e+00 -1.204364895820617676e+00 7.133769989013671875e-01 3.900000000000000000e+01
5.532297134399414062e+00 -1.223036289215087891e+00 7.142770290374755859e-01 3.400000000000000000e+01
5.582813262939453125e+00 -1.252186298370361328e+00 7.205775976181030273e-01 4.500000000000000000e+01
5.610918045043945312e+00 -1.276585578918457031e+00 7.242904305458068848e-01 3.400000000000000000e+01
5.627306938171386719e+00 -1.298487067222595215e+00 7.266530990600585938e-01 3.400000000000000000e+01
5.669736862182617188e+00 -1.326615571975708008e+00 7.320535778999328613e-01 3.800000000000000000e+01
5.694644451141357422e+00 -1.350886821746826172e+00 7.354288697242736816e-01 3.700000000000000000e+01
5.735879421234130859e+00 -1.379274129867553711e+00 7.407168149948120117e-01 3.600000000000000000e+01
5.769270420074462891e+00 -1.406044125556945801e+00 7.451046705245971680e-01 3.700000000000000000e+01
5.782293319702148438e+00 -1.428027153015136719e+00 7.471298575401306152e-01 2.900000000000000000e+01
5.833791732788085938e+00 -1.459754467010498047e+00 7.536553740501403809e-01 3.500000000000000000e+01
5.839880466461181641e+00 -1.480332016944885254e+00 7.548930048942565918e-01 3.300000000000000000e+01
5.871883392333984375e+00 -1.507634758949279785e+00 7.591683864593505859e-01 2.900000000000000000e+01
5.912427902221679688e+00 -1.537399053573608398e+00 7.644563317298889160e-01 4.400000000000000000e+01
5.909605026245117188e+00 -1.556037068367004395e+00 7.646813392639160156e-01 2.800000000000000000e+01
5.987371921539306641e+00 -1.596179246902465820e+00 7.743571400642395020e-01 3.100000000000000000e+01
6.047679424285888672e+00 -1.632151484489440918e+00 7.820078134536743164e-01 3.400000000000000000e+01
6.083859443664550781e+00 -1.661960482597351074e+00 7.868456840515136719e-01 5.400000000000000000e+01
6.108420848846435547e+00 -1.688828468322753906e+00 7.903335094451904297e-01 3.300000000000000000e+01
6.150097846984863281e+00 -1.720683097839355469e+00 7.958464622497558594e-01 3.900000000000000000e+01
6.194505214691162109e+00 -1.753621339797973633e+00 8.016969561576843262e-01 4.700000000000000000e+01
6.198647975921630859e+00 -1.775354266166687012e+00 8.028220534324645996e-01 2.900000000000000000e+01
6.271430969238281250e+00 -1.817043900489807129e+00 8.120478391647338867e-01 3.900000000000000000e+01
6.291572093963623047e+00 -1.843822836875915527e+00 8.150855898857116699e-01 4.400000000000000000e+01
6.335424423217773438e+00 -1.877803683280944824e+00 8.209360837936401367e-01 2.400000000000000000e+01
6.400065898895263672e+00 -1.918348789215087891e+00 8.292617797851562500e-01 3.400000000000000000e+01
6.418874263763427734e+00 -1.945470333099365234e+00 8.321870565414428711e-01 5.600000000000000000e+01
6.496477127075195312e+00 -1.990779757499694824e+00 8.420878648757934570e-01 3.900000000000000000e+01
6.537795543670654297e+00 -2.025407075881958008e+00 8.477133512496948242e-01 4.300000000000000000e+01
6.593184947967529297e+00 -2.064761877059936523e+00 8.550264835357666016e-01 3.900000000000000000e+01
6.643657207489013672e+00 -2.102975845336914062e+00 8.617770671844482422e-01 3.400000000000000000e+01
6.680707454681396484e+00 -2.137279033660888672e+00 8.669524788856506348e-01 2.800000000000000000e+01
6.707209587097167969e+00 -2.168465852737426758e+00 8.708903193473815918e-01 3.500000000000000000e+01
6.729804992675781250e+00 -2.198601007461547852e+00 8.743781447410583496e-01 4.100000000000000000e+01
6.773036003112792969e+00 -2.235748767852783203e+00 8.803411126136779785e-01 3.700000000000000000e+01
6.833068847656250000e+00 -2.278841972351074219e+00 8.883293271064758301e-01 2.300000000000000000e+01
6.859002113342285156e+00 -2.310901165008544922e+00 8.922671675682067871e-01 2.600000000000000000e+01
6.914903163909912109e+00 -2.353387117385864258e+00 8.998053073883056641e-01 3.700000000000000000e+01
6.958392143249511719e+00 -2.392037630081176758e+00 9.058808088302612305e-01 2.900000000000000000e+01
7.015788078308105469e+00 -2.435866594314575195e+00 9.136439561843872070e-01 2.800000000000000000e+01
7.058915615081787109e+00 -2.475136995315551758e+00 9.197194576263427734e-01 2.900000000000000000e+01
7.198341369628906250e+00 -2.548862934112548828e+00 9.373834729194641113e-01 1.100000000000000000e+01
7.171775341033935547e+00 -2.564243078231811523e+00 9.351332783699035645e-01 2.000000000000000000e+01
7.207800388336181641e+00 -2.602094650268554688e+00 9.404212236404418945e-01 1.800000000000000000e+01
7.322078704833984375e+00 -2.668779134750366211e+00 9.551599621772766113e-01 1.600000000000000000e+01
7.365143775939941406e+00 -2.710106134414672852e+00 9.613479971885681152e-01 1.200000000000000000e+01
7.389395236968994141e+00 -2.744801282882690430e+00 9.652858376502990723e-01 1.200000000000000000e+01
7.464673519134521484e+00 -2.798860549926757812e+00 9.754117131233215332e-01 1.800000000000000000e+01
7.489506721496582031e+00 -2.834412097930908203e+00 9.794620275497436523e-01 2.000000000000000000e+01
7.586592674255371094e+00 -2.897802114486694336e+00 9.922881126403808594e-01 1.400000000000000000e+01
7.665743827819824219e+00 -2.955022335052490234e+00 1.002976536750793457e+00 1.100000000000000000e+01
7.694608688354492188e+00 -2.993299007415771484e+00 1.007589459419250488e+00 1.100000000000000000e+01
7.805628299713134766e+00 -3.064099788665771484e+00 1.022215723991394043e+00 7.000000000000000000e+00
7.809124469757080078e+00 -3.093156337738037109e+00 1.023790836334228516e+00 1.700000000000000000e+01
7.929694652557373047e+00 -3.169101953506469727e+00 1.039654612541198730e+00 1.200000000000000000e+01
7.903347015380859375e+00 -3.186725378036499023e+00 1.037629485130310059e+00 1.000000000000000000e+01
8.005820274353027344e+00 -3.256642103195190430e+00 1.051355600357055664e+00 1.300000000000000000e+01
8.073822975158691406e+00 -3.342193365097045898e+00 1.062156558036804199e+00 9.000000000000000000e+00
8.182728767395019531e+00 -3.416727304458618164e+00 1.076782822608947754e+00 1.000000000000000000e+01
8.201511383056640625e+00 -3.454158782958984375e+00 1.080383062362670898e+00 1.200000000000000000e+01
8.312508583068847656e+00 -3.530979871749877930e+00 1.095346927642822266e+00 5.000000000000000000e+00
8.534717559814453125e+00 -3.718479156494140625e+00 1.126849532127380371e+00 1.200000000000000000e+01
9.285170555114746094e+00 -4.250528335571289062e+00 1.229008197784423828e+00 6.000000000000000000e+00
9.210737228393554688e+00 -4.250679016113281250e+00 1.221357583999633789e+00 7.000000000000000000e+00
9.505764007568359375e+00 -4.422274589538574219e+00 1.259835839271545410e+00 8.000000000000000000e+00
9.651238441467285156e+00 -4.598484992980957031e+00 1.283237814903259277e+00 7.000000000000000000e+00
9.695304870605468750e+00 -4.656035900115966797e+00 1.290550947189331055e+00 1.000000000000000000e+01
9.960363388061523438e+00 -4.858777999877929688e+00 1.327566623687744141e+00 9.000000000000000000e+00
7.350061416625976562e+00 4.467468738555908203e+00 9.420406818389892578e-01 5.000000000000000000e+00
7.403691768646240234e+00 4.407264709472656250e+00 9.435486793518066406e-01 5.400000000000000000e+01
7.361949920654296875e+00 4.321464538574218750e+00 9.355058670043945312e-01 4.300000000000000000e+01
7.377752304077148438e+00 4.300360679626464844e+00 9.358074665069580078e-01 9.700000000000000000e+01
7.311686515808105469e+00 4.231858730316162109e+00 9.265581965446472168e-01 5.400000000000000000e+01
7.279777050018310547e+00 4.183630943298339844e+00 9.213303923606872559e-01 4.500000000000000000e+01
7.264924526214599609e+00 4.145499706268310547e+00 9.181132316589355469e-01 5.300000000000000000e+01
7.198831081390380859e+00 4.078566074371337891e+00 9.089645147323608398e-01 8.300000000000000000e+01
7.202638149261474609e+00 4.051583766937255859e+00 9.079591631889343262e-01 9.800000000000000000e+01
7.195055007934570312e+00 4.018311023712158203e+00 9.056468605995178223e-01 1.080000000000000000e+02
7.220401763916015625e+00 4.003453731536865234e+00 9.071549177169799805e-01 9.000000000000000000e+01
7.249211311340332031e+00 3.990397930145263672e+00 9.090650677680969238e-01 8.500000000000000000e+01
7.288485527038574219e+00 3.982927560806274414e+00 9.121816754341125488e-01 9.300000000000000000e+01
7.312914371490478516e+00 3.967189311981201172e+00 9.135891795158386230e-01 1.000000000000000000e+02
7.337315559387207031e+00 3.951338768005371094e+00 9.149966239929199219e-01 1.030000000000000000e+02
7.366075515747070312e+00 3.937720537185668945e+00 9.169068336486816406e-01 9.500000000000000000e+01
7.367574691772460938e+00 3.909507513046264648e+00 9.157003760337829590e-01 1.040000000000000000e+02
7.376012802124023438e+00 3.885031223297119141e+00 9.152982831001281738e-01 9.800000000000000000e+01
7.403768539428710938e+00 3.870679855346679688e+00 9.171078801155090332e-01 9.800000000000000000e+01
7.418258190155029297e+00 3.849321842193603516e+00 9.174094796180725098e-01 9.200000000000000000e+01
7.458338260650634766e+00 3.841120481491088867e+00 9.206266403198242188e-01 1.060000000000000000e+02
7.468316078186035156e+00 3.817314863204956055e+00 9.204255342483520508e-01 1.000000000000000000e+02
7.513710498809814453e+00 3.811486244201660156e+00 9.242458939552307129e-01 8.900000000000000000e+01
7.520036220550537109e+00 3.785732746124267578e+00 9.236426949501037598e-01 9.400000000000000000e+01
7.558317661285400391e+00 3.775981664657592773e+00 9.266587495803833008e-01 3.500000000000000000e+01
7.561843872070312500e+00 3.748798370361328125e+00 9.257539510726928711e-01 3.400000000000000000e+01
7.567952632904052734e+00 3.722946643829345703e+00 9.251506924629211426e-01 3.100000000000000000e+01
7.575430870056152344e+00 3.669068574905395508e+00 9.234416484832763672e-01 4.900000000000000000e+01
7.612658500671386719e+00 3.658306121826171875e+00 9.263571500778198242e-01 3.720000000000000000e+02
7.600495338439941406e+00 3.623801946640014648e+00 9.237432479858398438e-01 1.100000000000000000e+01
7.640742301940917969e+00 3.557054281234741211e+00 9.245474934577941895e-01 3.000000000000000000e+01
5.992999076843261719e+00 2.701109409332275391e+00 7.371495962142944336e-01 7.000000000000000000e+01
5.998532772064208984e+00 2.681492567062377930e+00 7.368479967117309570e-01 7.900000000000000000e+01
5.970347881317138672e+00 2.646949529647827148e+00 7.328265905380249023e-01 8.600000000000000000e+01
5.952026844024658203e+00 2.617009162902832031e+00 7.299110293388366699e-01 8.500000000000000000e+01
5.949083328247070312e+00 2.593965291976928711e+00 7.287046313285827637e-01 8.000000000000000000e+01
5.935095310211181641e+00 2.566226482391357422e+00 7.262917757034301758e-01 1.120000000000000000e+02
5.937453746795654297e+00 2.545654058456420898e+00 7.256885766983032227e-01 1.280000000000000000e+02
5.937910556793212891e+00 2.524312734603881836e+00 7.248842716217041016e-01 1.450000000000000000e+02
5.946544170379638672e+00 2.506469964981079102e+00 7.249848246574401855e-01 1.480000000000000000e+02
5.944107532501220703e+00 2.483995199203491211e+00 7.238789200782775879e-01 2.000000000000000000e+02
5.951700210571289062e+00 2.465747356414794922e+00 7.238789200782775879e-01 1.830000000000000000e+02
5.990529537200927734e+00 2.460325241088867188e+00 7.272971272468566895e-01 2.610000000000000000e+02
5.912347793579101562e+00 2.407051801681518555e+00 7.179473638534545898e-01 5.400000000000000000e+01
5.890179634094238281e+00 2.376989364624023438e+00 7.147302031517028809e-01 6.200000000000000000e+01
5.896520614624023438e+00 2.358537912368774414e+00 7.146296501159667969e-01 7.600000000000000000e+01
5.832508563995361328e+00 2.312209129333496094e+00 7.068884372711181641e-01 6.900000000000000000e+01
5.821053981781005859e+00 2.287029504776000977e+00 7.048777341842651367e-01 6.600000000000000000e+01
5.790956497192382812e+00 2.254723548889160156e+00 7.008563280105590820e-01 4.600000000000000000e+01
5.788563728332519531e+00 2.233366012573242188e+00 6.998509764671325684e-01 5.300000000000000000e+01
5.738697052001953125e+00 2.193928480148315430e+00 6.937183141708374023e-01 3.200000000000000000e+01
5.704461097717285156e+00 2.160808324813842773e+00 6.892947554588317871e-01 5.100000000000000000e+01
5.684049606323242188e+00 2.133161544799804688e+00 6.863792538642883301e-01 3.600000000000000000e+01
5.662589550018310547e+00 2.105313777923583984e+00 6.833631396293640137e-01 4.700000000000000000e+01
5.627941131591796875e+00 2.072804927825927734e+00 6.789396405220031738e-01 3.900000000000000000e+01
5.612775802612304688e+00 2.047687768936157227e+00 6.766272783279418945e-01 5.000000000000000000e+01
5.577858448028564453e+00 2.015584468841552734e+00 6.722037196159362793e-01 4.300000000000000000e+01
5.530619621276855469e+00 1.979357481002807617e+00 6.664732098579406738e-01 4.200000000000000000e+01
5.526350498199462891e+00 1.958725214004516602e+00 6.653673648834228516e-01 4.400000000000000000e+01
5.501352787017822266e+00 1.930890560150146484e+00 6.620496511459350586e-01 3.700000000000000000e+01
5.490334033966064453e+00 1.908125877380371094e+00 6.602400541305541992e-01 5.300000000000000000e+01
5.485813140869140625e+00 1.887712717056274414e+00 6.591341495513916016e-01 4.800000000000000000e+01
5.447313785552978516e+00 1.855797648429870605e+00 6.544089913368225098e-01 4.900000000000000000e+01
5.436954498291015625e+00 1.833672881126403809e+00 6.526998877525329590e-01 4.500000000000000000e+01
5.432173252105712891e+00 1.813519239425659180e+00 6.515939831733703613e-01 5.400000000000000000e+01
5.377249240875244141e+00 1.776871681213378906e+00 6.451597213745117188e-01 4.900000000000000000e+01
5.375109672546386719e+00 1.757892727851867676e+00 6.443554759025573730e-01 4.600000000000000000e+01
5.353972434997558594e+00 1.732818007469177246e+00 6.415404677391052246e-01 3.700000000000000000e+01
5.325151443481445312e+00 1.705462694168090820e+00 6.379211544990539551e-01 5.000000000000000000e+01
5.329410076141357422e+00 1.688816785812377930e+00 6.378206610679626465e-01 3.900000000000000000e+01
5.282349586486816406e+00 1.656093001365661621e+00 6.322911977767944336e-01 3.900000000000000000e+01
5.259846687316894531e+00 1.631334662437438965e+00 6.293756961822509766e-01 4.300000000000000000e+01
5.227729797363281250e+00 1.603812813758850098e+00 6.254547834396362305e-01 5.300000000000000000e+01
5.192637443542480469e+00 1.575636982917785645e+00 6.212323307991027832e-01 4.700000000000000000e+01
5.186964511871337891e+00 1.556554079055786133e+00 6.201264262199401855e-01 5.400000000000000000e+01
5.192669391632080078e+00 1.540916323661804199e+00 6.202269792556762695e-01 6.000000000000000000e+01
5.143908500671386719e+00 1.509296655654907227e+00 6.145969629287719727e-01 6.100000000000000000e+01
5.150425910949707031e+00 1.494062423706054688e+00 6.147980690002441406e-01 5.600000000000000000e+01
5.164549350738525391e+00 1.480995774269104004e+00 6.158034205436706543e-01 4.200000000000000000e+01
5.086745262145996094e+00 1.441818475723266602e+00 6.071573495864868164e-01 5.000000000000000000e+01
5.100725650787353516e+00 1.428888678550720215e+00 6.081627011299133301e-01 6.700000000000000000e+01
5.078236103057861328e+00 1.405803322792053223e+00 6.053477525711059570e-01 5.200000000000000000e+01
5.075807094573974609e+00 1.388380050659179688e+00 6.046440005302429199e-01 5.500000000000000000e+01
5.065635204315185547e+00 1.368909239768981934e+00 6.031359434127807617e-01 5.100000000000000000e+01
5.058275699615478516e+00 1.350283384323120117e+00 6.019295454025268555e-01 6.800000000000000000e+01
5.059508323669433594e+00 1.333997845649719238e+00 6.016279458999633789e-01 6.600000000000000000e+01
5.026025772094726562e+00 1.308695316314697266e+00 5.977070331573486328e-01 7.300000000000000000e+01
5.000144958496093750e+00 1.285592198371887207e+00 5.945904254913330078e-01 6.100000000000000000e+01
4.967419147491455078e+00 1.260947465896606445e+00 5.907701253890991211e-01 8.700000000000000000e+01
4.943275928497314453e+00 1.238691210746765137e+00 5.878545641899108887e-01 7.200000000000000000e+01
4.947052955627441406e+00 1.223519682884216309e+00 5.878545641899108887e-01 7.500000000000000000e+01
4.913086891174316406e+00 1.199139833450317383e+00 5.839337110519409180e-01 8.000000000000000000e+01
4.911905765533447266e+00 1.182896852493286133e+00 5.834310054779052734e-01 7.700000000000000000e+01
4.905831813812255859e+00 1.165523052215576172e+00 5.824256539344787598e-01 7.600000000000000000e+01
4.877417087554931641e+00 1.142978787422180176e+00 5.791079998016357422e-01 8.300000000000000000e+01
4.858604431152343750e+00 1.122859239578247070e+00 5.767956972122192383e-01 9.100000000000000000e+01
4.843594551086425781e+00 1.103749752044677734e+00 5.748854875564575195e-01 1.030000000000000000e+02
4.818806171417236328e+00 1.082563161849975586e+00 5.719699859619140625e-01 1.060000000000000000e+02
4.796847343444824219e+00 1.062184095382690430e+00 5.693560838699340820e-01 1.090000000000000000e+02
4.819525241851806641e+00 1.051702976226806641e+00 5.713667869567871094e-01 1.170000000000000000e+02
4.794519901275634766e+00 1.030849933624267578e+00 5.684512257575988770e-01 1.030000000000000000e+02
4.756778717041015625e+00 1.007481575012207031e+00 5.642287731170654297e-01 1.300000000000000000e+02
4.740367412567138672e+00 9.888219237327575684e-01 5.622180700302124023e-01 1.300000000000000000e+02
4.751175880432128906e+00 9.758746027946472168e-01 5.630223155021667480e-01 1.140000000000000000e+02
4.729766845703125000e+00 9.563665390014648438e-01 5.605089664459228516e-01 1.230000000000000000e+02
4.700476646423339844e+00 9.354462623596191406e-01 5.571913123130798340e-01 1.690000000000000000e+02
4.692584037780761719e+00 9.189189672470092773e-01 5.560854077339172363e-01 1.570000000000000000e+02
4.673887252807617188e+00 9.003797769546508789e-01 5.538735985755920410e-01 1.610000000000000000e+02
4.663919448852539062e+00 8.836299180984497070e-01 5.525666475296020508e-01 1.670000000000000000e+02
4.634330272674560547e+00 8.633077144622802734e-01 5.492489933967590332e-01 1.740000000000000000e+02
4.629127502441406250e+00 8.476529121398925781e-01 5.484446883201599121e-01 1.620000000000000000e+02
4.605267047882080078e+00 8.286923766136169434e-01 5.457302331924438477e-01 1.790000000000000000e+02
4.577415466308593750e+00 8.091938495635986328e-01 5.426136851310729980e-01 1.660000000000000000e+02
4.574975013732910156e+00 7.942963242530822754e-01 5.421109795570373535e-01 1.930000000000000000e+02
4.567582130432128906e+00 7.785859704017639160e-01 5.411056280136108398e-01 2.140000000000000000e+02
4.545416831970214844e+00 7.604675292968750000e-01 5.385922193527221680e-01 2.070000000000000000e+02
4.535946369171142578e+00 7.445861101150512695e-01 5.373858213424682617e-01 2.070000000000000000e+02
4.528386592864990234e+00 7.290861010551452637e-01 5.363804697990417480e-01 2.280000000000000000e+02
4.521757125854492188e+00 7.137945294380187988e-01 5.354756712913513184e-01 2.400000000000000000e+02
4.507210254669189453e+00 6.973344087600708008e-01 5.337665677070617676e-01 2.280000000000000000e+02
4.495556354522705078e+00 6.814172863960266113e-01 5.323590636253356934e-01 2.690000000000000000e+02
4.477942466735839844e+00 6.647023558616638184e-01 5.303483605384826660e-01 2.490000000000000000e+02
4.464207172393798828e+00 6.486737728118896484e-01 5.287397503852844238e-01 2.240000000000000000e+02
4.462235927581787109e+00 6.344150304794311523e-01 5.283376574516296387e-01 2.390000000000000000e+02
4.449379444122314453e+00 6.186683773994445801e-01 5.268296003341674805e-01 2.360000000000000000e+02
4.436468124389648438e+00 6.030066609382629395e-01 5.253216028213500977e-01 2.400000000000000000e+02
4.422516822814941406e+00 5.872991085052490234e-01 5.237129926681518555e-01 2.510000000000000000e+02
4.409497261047363281e+00 5.718107223510742188e-01 5.222049951553344727e-01 2.700000000000000000e+02
4.397411823272705078e+00 5.565325617790222168e-01 5.207974910736083984e-01 2.670000000000000000e+02
4.382311820983886719e+00 5.409685969352722168e-01 5.190883874893188477e-01 3.040000000000000000e+02
4.357279777526855469e+00 5.243150591850280762e-01 5.163739323616027832e-01 2.430000000000000000e+02
4.349974155426025391e+00 5.099031925201416016e-01 5.154691338539123535e-01 2.490000000000000000e+02
4.340644359588623047e+00 4.953157305717468262e-01 5.143632292747497559e-01 2.510000000000000000e+02
4.342143535614013672e+00 4.819964766502380371e-01 5.143632292747497559e-01 3.040000000000000000e+02
4.316893100738525391e+00 4.657939970493316650e-01 5.116487741470336914e-01 2.950000000000000000e+02
4.301479816436767578e+00 4.507868587970733643e-01 5.099396705627441406e-01 2.680000000000000000e+02
4.294923782348632812e+00 4.367836117744445801e-01 5.091353654861450195e-01 2.940000000000000000e+02
4.285352230072021484e+00 4.225322902202606201e-01 5.080295205116271973e-01 2.850000000000000000e+02
4.272762298583984375e+00 4.080604314804077148e-01 5.066220164299011230e-01 3.100000000000000000e+02
4.261114597320556641e+00 3.937612473964691162e-01 5.053150653839111328e-01 2.920000000000000000e+02
4.253383636474609375e+00 3.798909485340118408e-01 5.044102072715759277e-01 2.810000000000000000e+02
4.245607852935791016e+00 3.660717904567718506e-01 5.035054087638854980e-01 2.910000000000000000e+02
4.233820915222167969e+00 3.519746959209442139e-01 5.021984577178955078e-01 2.710000000000000000e+02
4.214053630828857422e+00 3.373192250728607178e-01 5.000872015953063965e-01 2.830000000000000000e+02
4.203164577484130859e+00 3.234744071960449219e-01 4.988807737827301025e-01 2.780000000000000000e+02
4.184292793273925781e+00 3.091141283512115479e-01 4.968700706958770752e-01 2.850000000000000000e+02
4.176289081573486328e+00 2.956442236900329590e-01 4.959652423858642578e-01 2.880000000000000000e+02
4.178169250488281250e+00 2.828972637653350830e-01 4.960657954216003418e-01 3.110000000000000000e+02
4.174053192138671875e+00 2.697572410106658936e-01 4.955631196498870850e-01 3.190000000000000000e+02
4.145069122314453125e+00 2.551201879978179932e-01 4.925470352172851562e-01 3.160000000000000000e+02
4.141859531402587891e+00 2.421702891588211060e-01 4.921449124813079834e-01 2.710000000000000000e+02
4.119734287261962891e+00 2.281992882490158081e-01 4.898325800895690918e-01 2.880000000000000000e+02
4.114453315734863281e+00 2.152479141950607300e-01 4.892293810844421387e-01 3.020000000000000000e+02
4.112113475799560547e+00 2.024775147438049316e-01 4.889277815818786621e-01 3.040000000000000000e+02
4.109733581542968750e+00 1.897234916687011719e-01 4.886261522769927979e-01 3.130000000000000000e+02
4.104331970214843750e+00 1.768578588962554932e-01 4.880229532718658447e-01 2.790000000000000000e+02
4.091931343078613281e+00 1.637495309114456177e-01 4.867160022258758545e-01 3.290000000000000000e+02
4.081477642059326172e+00 1.507921814918518066e-01 4.856100976467132568e-01 2.770000000000000000e+02
4.069988727569580078e+00 1.378669589757919312e-01 4.844036698341369629e-01 2.530000000000000000e+02
4.056469917297363281e+00 1.249526441097259521e-01 4.829961955547332764e-01 2.870000000000000000e+02
4.044899463653564453e+00 1.121774911880493164e-01 4.817897677421569824e-01 2.710000000000000000e+02
4.019364356994628906e+00 9.913282841444015503e-02 4.791758358478546143e-01 2.670000000000000000e+02
4.015670776367187500e+00 8.671570569276809692e-02 4.787737131118774414e-01 2.890000000000000000e+02
4.016912460327148438e+00 7.441370189189910889e-02 4.788742363452911377e-01 2.750000000000000000e+02
3.991256713867187500e+00 6.169311702251434326e-02 4.762603044509887695e-01 2.540000000000000000e+02
3.992422103881835938e+00 4.946002364158630371e-02 4.763608574867248535e-01 2.390000000000000000e+02
4.033345699310302734e+00 3.758620843291282654e-02 4.804828166961669922e-01 3.290000000000000000e+02
4.050355434417724609e+00 2.531549893319606781e-02 4.821918904781341553e-01 2.980000000000000000e+02
4.055388927459716797e+00 1.290427148342132568e-02 4.826945662498474121e-01 2.560000000000000000e+02
4.075307846069335938e+00 4.622363194357603788e-04 4.847052991390228271e-01 2.750000000000000000e+02
4.091208934783935547e+00 -1.208964642137289047e-02 4.863138496875762939e-01 2.710000000000000000e+02
4.105081558227539062e+00 -2.472686208784580231e-02 4.877213537693023682e-01 2.830000000000000000e+02
4.119909763336181641e+00 -3.745847567915916443e-02 4.892293810844421387e-01 2.740000000000000000e+02
4.130718708038330078e+00 -5.023242905735969543e-02 4.903352558612823486e-01 2.840000000000000000e+02
4.138504028320312500e+00 -6.302724033594131470e-02 4.911395609378814697e-01 2.590000000000000000e+02
4.134312152862548828e+00 -7.565039396286010742e-02 4.907374083995819092e-01 2.660000000000000000e+02
4.175837993621826172e+00 -8.923172950744628906e-02 4.949598908424377441e-01 2.520000000000000000e+02
4.202399730682373047e+00 -1.027021482586860657e-01 4.976743459701538086e-01 2.640000000000000000e+02
4.215988636016845703e+00 -1.159791499376296997e-01 4.990818500518798828e-01 2.680000000000000000e+02
4.222574234008789062e+00 -1.291267871856689453e-01 4.997856020927429199e-01 2.330000000000000000e+02
4.251988887786865234e+00 -1.430882811546325684e-01 5.028016567230224609e-01 2.730000000000000000e+02
4.254512786865234375e+00 -1.562424302101135254e-01 5.031032562255859375e-01 2.350000000000000000e+02
4.280855178833007812e+00 -1.703657656908035278e-01 5.058177113533020020e-01 2.420000000000000000e+02
4.291246891021728516e+00 -1.839684844017028809e-01 5.069236159324645996e-01 2.710000000000000000e+02
4.306564331054687500e+00 -1.978654712438583374e-01 5.085321664810180664e-01 2.570000000000000000e+02
4.323823928833007812e+00 -2.119558304548263550e-01 5.103418231010437012e-01 2.610000000000000000e+02
4.325140476226806641e+00 -2.253239005804061890e-01 5.105428695678710938e-01 2.530000000000000000e+02
4.348270893096923828e+00 -2.399104088544845581e-01 5.129557251930236816e-01 2.590000000000000000e+02
4.356453418731689453e+00 -2.537713646888732910e-01 5.138605237007141113e-01 2.520000000000000000e+02
4.377501964569091797e+00 -2.684780359268188477e-01 5.160723328590393066e-01 2.230000000000000000e+02
4.384600639343261719e+00 -2.824192941188812256e-01 5.168765783309936523e-01 2.300000000000000000e+02
4.428383350372314453e+00 -2.988898158073425293e-01 5.214006900787353516e-01 2.050000000000000000e+02
4.457219600677490234e+00 -3.145792484283447266e-01 5.244167447090148926e-01 2.310000000000000000e+02
4.471117019653320312e+00 -3.293503522872924805e-01 5.259248018264770508e-01 2.090000000000000000e+02
4.475045204162597656e+00 -3.434472382068634033e-01 5.264274477958679199e-01 2.280000000000000000e+02
4.489839076995849609e+00 -3.584434986114501953e-01 5.280360579490661621e-01 2.420000000000000000e+02
4.506565570831298828e+00 -3.736984133720397949e-01 5.298456549644470215e-01 2.040000000000000000e+02
4.530179500579833984e+00 -3.896569311618804932e-01 5.323590636253356934e-01 1.850000000000000000e+02
4.556710720062255859e+00 -4.060291051864624023e-01 5.351740121841430664e-01 1.770000000000000000e+02
4.568322658538818359e+00 -4.211958944797515869e-01 5.364810228347778320e-01 1.630000000000000000e+02
4.587808132171630859e+00 -4.371936917304992676e-01 5.385922193527221680e-01 1.680000000000000000e+02
4.620110034942626953e+00 -4.545828700065612793e-01 5.420104265213012695e-01 1.770000000000000000e+02
4.641459941864013672e+00 -4.710681140422821045e-01 5.443227887153625488e-01 1.770000000000000000e+02
4.660773277282714844e+00 -4.874814152717590332e-01 5.464339852333068848e-01 1.390000000000000000e+02
4.707726478576660156e+00 -5.070035457611083984e-01 5.513602495193481445e-01 1.730000000000000000e+02
4.690326690673828125e+00 -5.196894407272338867e-01 5.497516393661499023e-01 1.130000000000000000e+02
4.721332073211669922e+00 -5.377960801124572754e-01 5.530693531036376953e-01 1.390000000000000000e+02
4.742387771606445312e+00 -5.549404025077819824e-01 5.553816556930541992e-01 1.220000000000000000e+02
4.764370441436767578e+00 -5.723377466201782227e-01 5.577945113182067871e-01 1.200000000000000000e+02
4.797152996063232422e+00 -5.912150144577026367e-01 5.613132119178771973e-01 1.080000000000000000e+02
4.824928760528564453e+00 -6.096745729446411133e-01 5.643293261528015137e-01 9.000000000000000000e+01
4.835862636566162109e+00 -6.261365413665771484e-01 5.656362771987915039e-01 9.200000000000000000e+01
4.856603622436523438e+00 -6.439801454544067383e-01 5.679485797882080078e-01 9.600000000000000000e+01
4.866435527801513672e+00 -6.604838967323303223e-01 5.691549777984619141e-01 1.000000000000000000e+02
4.882124423980712891e+00 -6.778755784034729004e-01 5.709646344184875488e-01 8.400000000000000000e+01
4.898737907409667969e+00 -6.955097317695617676e-01 5.728747844696044922e-01 9.500000000000000000e+01
4.916273117065429688e+00 -7.133951187133789062e-01 5.748854875564575195e-01 7.200000000000000000e+01
4.905203819274902344e+00 -7.271606922149658203e-01 5.739806890487670898e-01 7.800000000000000000e+01
4.958037376403808594e+00 -7.505511641502380371e-01 5.796106457710266113e-01 6.800000000000000000e+01
4.968493938446044922e+00 -7.677350640296936035e-01 5.809176564216613770e-01 5.700000000000000000e+01
5.013288497924804688e+00 -7.904169559478759766e-01 5.857433080673217773e-01 7.200000000000000000e+01
5.059954643249511719e+00 -8.136970400810241699e-01 5.907701253890991211e-01 5.500000000000000000e+01
5.080016136169433594e+00 -8.329216837882995605e-01 5.930824279785156250e-01 8.200000000000000000e+01
5.084305763244628906e+00 -8.496516346931457520e-01 5.937861800193786621e-01 6.600000000000000000e+01
5.111099243164062500e+00 -8.702589869499206543e-01 5.968022346496582031e-01 4.800000000000000000e+01
5.125070095062255859e+00 -8.888273835182189941e-01 5.985113382339477539e-01 5.600000000000000000e+01
5.126238346099853516e+00 -9.052391052246093750e-01 5.989134907722473145e-01 5.500000000000000000e+01
5.159667968750000000e+00 -9.274783134460449219e-01 6.026332974433898926e-01 4.900000000000000000e+01
5.174414634704589844e+00 -9.465277791023254395e-01 6.044428944587707520e-01 5.300000000000000000e+01
5.214523792266845703e+00 -9.704115986824035645e-01 6.088664531707763672e-01 4.600000000000000000e+01
5.267242908477783203e+00 -9.969570040702819824e-01 6.145969629287719727e-01 5.300000000000000000e+01
5.271975040435791016e+00 -1.014616966247558594e+00 6.154012680053710938e-01 5.600000000000000000e+01
5.299106121063232422e+00 -1.036710977554321289e+00 6.185178756713867188e-01 5.100000000000000000e+01
5.312489509582519531e+00 -1.056263446807861328e+00 6.202269792556762695e-01 4.800000000000000000e+01
5.356034278869628906e+00 -1.082018017768859863e+00 6.250526309013366699e-01 5.800000000000000000e+01
5.370232105255126953e+00 -1.102046847343444824e+00 6.268622875213623047e-01 4.600000000000000000e+01
5.395071506500244141e+00 -1.124406695365905762e+00 6.297778487205505371e-01 4.700000000000000000e+01
5.424690723419189453e+00 -1.147959709167480469e+00 6.331959962844848633e-01 4.200000000000000000e+01
5.426979541778564453e+00 -1.165851354598999023e+00 6.337992548942565918e-01 3.500000000000000000e+01
5.461288452148437500e+00 -1.190765261650085449e+00 6.377201080322265625e-01 3.000000000000000000e+01
5.492580413818359375e+00 -1.215255498886108398e+00 6.413393616676330566e-01 5.400000000000000000e+01
5.552896022796630859e+00 -1.246488809585571289e+00 6.479747295379638672e-01 4.500000000000000000e+01
5.554866313934326172e+00 -1.264844894409179688e+00 6.485779285430908203e-01 4.000000000000000000e+01
5.625603675842285156e+00 -1.299125552177429199e+00 6.563191413879394531e-01 4.500000000000000000e+01
5.677776813507080078e+00 -1.329540252685546875e+00 6.621502041816711426e-01 4.800000000000000000e+01
5.660118579864501953e+00 -1.343734622001647949e+00 6.607427000999450684e-01 4.200000000000000000e+01
5.751732349395751953e+00 -1.384147167205810547e+00 6.706957221031188965e-01 4.100000000000000000e+01
5.749391555786132812e+00 -1.402258276939392090e+00 6.708967685699462891e-01 4.700000000000000000e+01
5.824262619018554688e+00 -1.439471960067749023e+00 6.791406869888305664e-01 4.400000000000000000e+01
5.851667404174804688e+00 -1.465311884880065918e+00 6.824583411216735840e-01 5.600000000000000000e+01
5.819177627563476562e+00 -1.476160764694213867e+00 6.795428395271301270e-01 4.200000000000000000e+01
5.863765716552734375e+00 -1.506638407707214355e+00 6.846701502799987793e-01 5.700000000000000000e+01
5.988137722015380859e+00 -1.558205723762512207e+00 6.981418728828430176e-01 4.200000000000000000e+01
5.944845676422119141e+00 -1.566426396369934082e+00 6.941204667091369629e-01 4.300000000000000000e+01
6.035180091857910156e+00 -1.610054492950439453e+00 7.040734291076660156e-01 4.100000000000000000e+01
6.060948371887207031e+00 -1.636866092681884766e+00 7.072905898094177246e-01 3.400000000000000000e+01
6.065495014190673828e+00 -1.658077359199523926e+00 7.082959413528442383e-01 5.200000000000000000e+01
6.101611614227294922e+00 -1.688089251518249512e+00 7.126189470291137695e-01 5.500000000000000000e+01
6.145265579223632812e+00 -1.720484733581542969e+00 7.177462577819824219e-01 4.500000000000000000e+01
6.162931919097900391e+00 -1.745840072631835938e+00 7.201591134071350098e-01 4.100000000000000000e+01
6.221626281738281250e+00 -1.783109903335571289e+00 7.268949747085571289e-01 2.800000000000000000e+01
6.230459690093994141e+00 -1.806345939636230469e+00 7.284030318260192871e-01 4.300000000000000000e+01
6.300310611724853516e+00 -1.847576141357421875e+00 7.363452911376953125e-01 4.200000000000000000e+01
6.349935531616210938e+00 -1.883309245109558105e+00 7.421763539314270020e-01 4.300000000000000000e+01
6.392729282379150391e+00 -1.917362689971923828e+00 7.473036646842956543e-01 4.600000000000000000e+01
6.419188022613525391e+00 -1.946786284446716309e+00 7.507218718528747559e-01 4.900000000000000000e+01
6.442672252655029297e+00 -1.975515007972717285e+00 7.538384795188903809e-01 4.200000000000000000e+01
6.520207405090332031e+00 -2.021201610565185547e+00 7.626855969429016113e-01 6.900000000000000000e+01
6.542457103729248047e+00 -2.050123214721679688e+00 7.657016515731811523e-01 5.100000000000000000e+01
6.594942092895507812e+00 -2.088815689086914062e+00 7.719348073005676270e-01 5.000000000000000000e+01
6.656725883483886719e+00 -2.130883216857910156e+00 7.791733741760253906e-01 5.000000000000000000e+01
6.675715923309326172e+00 -2.159565925598144531e+00 7.818878293037414551e-01 4.100000000000000000e+01
6.711614131927490234e+00 -2.193950653076171875e+00 7.864119410514831543e-01 4.100000000000000000e+01
6.743584632873535156e+00 -2.227327346801757812e+00 7.905338406562805176e-01 3.100000000000000000e+01
6.768806934356689453e+00 -2.258715867996215820e+00 7.939520478248596191e-01 3.500000000000000000e+01
6.843867778778076172e+00 -2.307128429412841797e+00 8.026986718177795410e-01 3.500000000000000000e+01
6.904566764831542969e+00 -2.351210832595825195e+00 8.099371790885925293e-01 3.800000000000000000e+01
6.921782016754150391e+00 -2.380798101425170898e+00 8.125511407852172852e-01 3.000000000000000000e+01
7.067635536193847656e+00 -2.455251455307006836e+00 8.289383649826049805e-01 3.600000000000000000e+01
7.055375576019287109e+00 -2.475275993347167969e+00 8.284357190132141113e-01 2.800000000000000000e+01
7.176226139068603516e+00 -2.542437314987182617e+00 8.422090411186218262e-01 3.600000000000000000e+01
7.174012660980224609e+00 -2.566452980041503906e+00 8.428122401237487793e-01 2.100000000000000000e+01
7.227863788604736328e+00 -2.610762834548950195e+00 8.494476079940795898e-01 2.600000000000000000e+01
7.279640674591064453e+00 -2.654745101928710938e+00 8.558818697929382324e-01 2.300000000000000000e+01
7.328413963317871094e+00 -2.698038101196289062e+00 8.620145320892333984e-01 1.000000000000000000e+01
7.402169704437255859e+00 -2.751014947891235352e+00 8.708616495132446289e-01 2.200000000000000000e+01
7.446791648864746094e+00 -2.793634414672851562e+00 8.765921592712402344e-01 1.800000000000000000e+01
7.507038116455078125e+00 -2.842543840408325195e+00 8.840317726135253906e-01 2.500000000000000000e+01
7.549396991729736328e+00 -2.885099411010742188e+00 8.895611763000488281e-01 1.800000000000000000e+01
7.603631496429443359e+00 -2.932596683502197266e+00 8.963975906372070312e-01 1.900000000000000000e+01
7.719765186309814453e+00 -3.004635572433471680e+00 9.099698662757873535e-01 9.000000000000000000e+00
7.762369632720947266e+00 -3.048676729202270508e+00 9.155998826026916504e-01 1.500000000000000000e+01
7.826973915100097656e+00 -3.101805686950683594e+00 9.236426949501037598e-01 1.500000000000000000e+01
7.850677490234375000e+00 -3.139103889465332031e+00 9.272619485855102539e-01 2.200000000000000000e+01
7.963723659515380859e+00 -3.212687730789184570e+00 9.406331777572631836e-01 1.600000000000000000e+01
8.057039260864257812e+00 -3.279117107391357422e+00 9.518931508064270020e-01 3.000000000000000000e+01
8.082835197448730469e+00 -3.318559646606445312e+00 9.558140039443969727e-01 2.300000000000000000e+01
8.142475128173828125e+00 -3.372279167175292969e+00 9.634547233581542969e-01 1.700000000000000000e+01
8.213794708251953125e+00 -3.431381940841674805e+00 9.724023342132568359e-01 1.100000000000000000e+01
8.340004920959472656e+00 -3.544377326965332031e+00 9.885885119438171387e-01 6.000000000000000000e+00
8.476091384887695312e+00 -3.663785934448242188e+00 1.005981206893920898e+00 6.000000000000000000e+00
8.835079193115234375e+00 -3.883495330810546875e+00 1.048105478286743164e+00 8.000000000000000000e+00
8.868601799011230469e+00 -3.930742502212524414e+00 1.053132295608520508e+00 6.000000000000000000e+00
9.169761657714843750e+00 -4.199623584747314453e+00 1.092039465904235840e+00 1.000000000000000000e+01
9.412641525268554688e+00 -4.416127204895019531e+00 1.123507022857666016e+00 1.100000000000000000e+01
9.538456916809082031e+00 -4.510921001434326172e+00 1.139089941978454590e+00 1.200000000000000000e+01
9.560496330261230469e+00 -4.557289600372314453e+00 1.143111348152160645e+00 1.600000000000000000e+01
9.724031448364257812e+00 -4.671919345855712891e+00 1.163017392158508301e+00 1.400000000000000000e+01
7.358441352844238281e+00 4.321128845214843750e+00 8.316562175750732422e-01 5.900000000000000000e+01
7.366500377655029297e+00 4.295523166656494141e+00 8.311249017715454102e-01 1.340000000000000000e+02
7.293441295623779297e+00 4.222996711730957031e+00 8.222702741622924805e-01 5.100000000000000000e+01
7.243322849273681641e+00 4.164362907409667969e+00 8.158063888549804688e-01 3.900000000000000000e+01
7.207620620727539062e+00 4.114470481872558594e+00 8.108477592468261719e-01 3.900000000000000000e+01
